# .PCD v0.7 - Point Cloud Data file format
VERSION 0.7
FIELDS x y z normal_x normal_y normal_z rgb
SIZE 4 4 4 4 4 4 4
TYPE F F F F F F F
COUNT 1 1 1 1 1 1 1
WIDTH 503
HEIGHT 1
VIEWPOINT 0 0 0 1 0 0 0
POINTS 503
DATA ascii
2.586906158 -1.738251714 0.1850924607 -0.2282196376 0.04839276529 0.9724062614 2.348262335e-38
3.350867271 -3.117089033 0.4116643667 -0.4270486241 0.04085914476 0.9033050442 2.348262335e-38
2.845741987 -0.0660697296 0.2200264633 -0.2507649778 0.04323663755 0.9670819609 2.348262335e-38
2.477626615 -2.938880682 0.1824515777 -0.2538583025 0.02163896937 0.9669993367 2.348262335e-38
4.077801206 -2.74953219 0.7902148962 0.7618781831 -0.08824042759 0.6416815886 2.348262335e-38
2.866270214 1.257738248 0.223253306 -0.2081051223 -0.05751733352 0.9764138541 2.348262335e-38
3.883531666 -2.831162167 0.9804572702 -0.0129164197 0.8360579041 0.5484891494 2.348262335e-38
9.33313942 3.727322102 1.80101943 -0.2352018439 0.01045562513 0.9718903089 2.348262335e-38
2.567983548 2.869604376 0.1880322595 -0.2676015577 -0.003632536151 0.9635228129 2.348262335e-38
2.63764286 -3.681504965 0.2357626855 -0.4474174402 -0.05873955996 0.8923941384 2.348262335e-38
2.689737592 -1.23542608 0.2114112661 -0.2729315092 -0.01446586969 0.9619247007 2.348262335e-38
2.709879875 3.073089441 0.2233189792 -0.2699733542 -0.005671187228 0.9628510922 2.348262335e-38
2.761329889 -1.738505324 0.224544165 -0.2291001666 0.02604522354 0.9730543459 2.348262335e-38
2.373953364 -2.731422446 0.1546179192 -0.2524102566 0.0171017207 0.9674691693 2.348262335e-38
2.842187882 3.324248075 0.2361018658 0.6633970623 0.1387967777 -0.7352821174 2.348262335e-38
2.34771196 -2.52212882 0.1341920793 -0.2484835982 0.0146458299 0.9685253745 2.348262335e-38
2.285753139 3.266702636 0.09961557239 0.276130241 0.01791653597 -0.9609532183 2.348262335e-38
2.674159944 1.266550064 0.1923458697 -0.2316855439 -0.06113838345 0.9708676052 2.348262335e-38
3.188476854 -0.0543672264 0.3405016826 -0.2534795135 0.02946344754 0.9668919492 2.348262335e-38
2.270749404 -2.436593294 0.1237694781 -0.2492862638 0.01887165684 0.9682459498 2.348262335e-38
1.457602501 1.83636289 0.1299748474 0.2264996709 -0.9701674382 0.08644675196 2.348262335e-38
3.913512766 0.6453279108 0.4873704538 -0.2618750231 0.01521806296 0.9649818044 2.348262335e-38
4.587263733 -2.242890403 0.9755389989 0.5333589584 -0.8419000598 -0.08205187861 2.348262335e-38
2.849564648 0.1666289955 0.2195470273 -0.2541545922 0.01057391874 0.9671058037 2.348262335e-38
2.685518843 -4.137049188 0.4825259029 0.9310041748 -0.3324293948 0.1507379317 2.348262335e-38
33.68428421 -56.46109009 9.263346672 -0.3127613885 -0.05154639295 -0.948432013 2.348262335e-38
2.794598043 1.429400802 0.2476332746 -0.2061550142 -0.01245592961 0.9784400646 2.348262335e-38
2.847449541 -4.848600547 0.2984137336 0.7502473513 0.005638956272 0.6611332045 2.348262335e-38
2.909253418 1.542041093 0.253908854 -0.1991997949 0.05432124605 0.9784521674 2.348262335e-38
2.786759436 -1.622366101 0.2426129617 -0.2553458206 0.002272007493 0.9668471181 2.348262335e-38
2.181852194 -2.231733744 0.0960963082 -0.2492969664 0.009580790919 0.9683796936 2.348262335e-38
1.984748982 1.961989306 0.08141718875 -0.002969674939 -0.1802684204 -0.9836129715 2.348262335e-38
2.883781566 0.2676626626 0.2246148984 -0.2430506349 0.01374293339 0.9699162441 2.348262335e-38
2.085796061 -2.032913117 0.07665562097 -0.2435637285 -0.001042656602 0.9698843349 2.348262335e-38
2.900213295 0.3650608361 0.2294912785 -0.2414500711 0.005092985229 0.9703998787 2.348262335e-38
3.695450425 -2.797890464 0.7824780544 0.05468431254 0.9926009062 0.1084115626 2.348262335e-38
2.473264832 -0.8294192804 0.1631582199 -0.2464083537 -0.03115558522 0.9686651912 2.348262335e-38
3.687276173 2.243587399 0.3916937649 -0.1330269428 -0.218273483 0.966778423 2.348262335e-38
1.588734087 -2.438259988 -0.04723668036 -0.2491639119 0.008362696663 0.9684252219 2.348262335e-38
2.829408169 4.383657932 0.4280374348 0.9777475228 0.1565586999 0.1396393752 2.348262335e-38
2.406589335 -0.6380409978 0.160277238 -0.2520668854 0.02304628442 0.9674353488 2.348262335e-38
2.450695753 -1.112716556 0.1377572417 -0.2447281192 -0.02026678086 0.9693799076 2.348262335e-38
1.926442782 -1.550352931 0.03956725077 -0.2455704633 0.02559140344 0.9690408803 2.348262335e-38
3.590346158 -3.040830255 0.4839424491 -0.1672703643 0.141490657 0.9757053957 2.348262335e-38
3.480759462 2.362021446 0.5100437651 0.2544622586 -0.9601038614 0.1159721272 2.348262335e-38
1.994743466 -1.834490185 0.05644052461 -0.2501238334 0.0125763045 0.9681321731 2.348262335e-38
2.948912025 4.254037738 0.3689392991 0.9837721891 0.1792367817 -0.008152052554 2.348262335e-38
2.374873837 2.861603737 0.1206107382 -0.2963280184 -0.001123800423 0.9550855682 2.348262335e-38
3.373369932 1.935519576 0.3508722484 -0.2897808228 0.1002565476 0.9518275576 2.348262335e-38
2.85557847 0.1651651457 0.2452322364 -0.2517051623 0.008870087945 0.9677633145 2.348262335e-38
3.804597696 -1.516673962 0.5174228152 -0.2535117246 -0.009538123238 0.9672852887 2.348262335e-38
4.021365129 -0.6332698464 0.5533864636 -0.2418375326 0.04925710724 0.9690657074 2.348262335e-38
2.583885922 0.9556992475 0.168490395 -0.2287317213 0.008118649316 0.9734556421 2.348262335e-38
2.681044298 -0.3370506606 0.2075271668 -0.2434952147 0.03147669926 0.9693911996 2.348262335e-38
5.91507864 2.7243855 0.9755982757 -0.2320506714 0.005560183372 0.9726878072 2.348262335e-38
3.585539436 -2.343934441 0.4470551729 -0.2633755037 0.01068801931 0.9646341847 2.348262335e-38
2.794524636 -0.4418093179 0.2457576053 -0.2275629045 0.03445522759 0.9731536167 2.348262335e-38
29.86542511 -54.10111618 9.246655464 0.3048637724 0.9291078708 0.2093242572 2.348262335e-38
2.023490959 1.559189108 0.0423761747 0.1402551876 0.1214180613 -0.9826424257 2.348262335e-38
2.100321854 -0.7332883512 0.06661604652 0.2807256325 -0.01016825103 -0.9597341955 2.348262335e-38
2.452599049 0.5476111025 0.1266991375 -0.2279293861 -0.01607164992 0.9735450154 2.348262335e-38
2.388002368 0.560135282 0.1210407116 -0.2237253487 -0.01638569669 0.9745144829 2.348262335e-38
22.9210186 -41.55562973 5.995315075 0.5055670923 -0.860133023 0.06762468456 2.348262335e-38
1.972200498 1.463465939 0.02266949886 -0.2111634543 -0.05048547969 0.9761461017 2.348262335e-38
1.683262794 -1.83594171 -0.0286347815 -0.2578925017 0.01709263553 0.9660224114 2.348262335e-38
3.888486968 1.557730158 0.4824274811 -0.2494577458 -0.00915092836 0.9683424464 2.348262335e-38
2.377925207 0.4675927653 0.1136227754 -0.2301486475 -0.01497407175 0.9730402752 2.348262335e-38
29.84903336 -54.11606598 9.34670639 0.3048637724 0.9291078708 0.2093242572 2.348262335e-38
1.982020836 1.557786407 0.0267333321 -0.1834750008 -0.1386990674 0.9731903682 2.348262335e-38
5.764930725 0.8991837203 0.9716756344 -0.246358489 0.02256717325 0.9689160013 2.348262335e-38
8.271449566 3.35112536 1.546346188 -0.2345951076 0.01064659979 0.9720348684 2.348262335e-38
3.167121232 -2.132758439 0.329376325 -0.2239740668 0.0463243953 0.9734935376 2.348262335e-38
2.666758207 -0.4347462677 0.2108393059 -0.2355296456 0.0504886428 0.9705548325 2.348262335e-38
2.466543118 0.7672831019 0.1296105124 -0.2255003504 -5.39247192e-05 0.9742430852 2.348262335e-38
3.362196207 -3.487741709 0.5879588723 0.1677301642 -0.2962075482 0.9402806392 2.348262335e-38
2.185162703 2.062186334 0.08159791553 -0.1978056034 -0.120253373 0.9728371238 2.348262335e-38
45.53957367 -74.34294891 13.59000969 -0.2014534393 0.9768862702 0.0714823534 2.348262335e-38
2.572757959 -3.328648567 0.2206342757 -0.3655023983 0.2548451142 0.895244081 2.348262335e-38
2.488973119 2.757329767 0.1617810387 0.2793827921 0.002941806904 -0.9601752971 2.348262335e-38
2.883441122 -0.4327904331 0.258957255 -0.2359192319 0.03548213869 0.9711246747 2.348262335e-38
1.964617056 2.043404355 0.07248321373 -0.4597366586 0.1578792363 0.8739086631 2.348262335e-38
4.155437279 -2.839414501 0.7663531065 0.7375155591 0.002911087056 0.6753238673 2.348262335e-38
2.473293632 2.669104636 0.1610045154 0.2742602494 -0.004443257583 -0.9616452428 2.348262335e-38
2.564635873 -4.05576539 0.2212722711 -0.4233021629 0.005477612451 0.9059720055 2.348262335e-38
2.768469143 1.262735041 0.2069761614 -0.2024210904 -0.06160688779 0.9773588356 2.348262335e-38
2.58060528 -1.140842432 0.1845303275 -0.2540819516 -0.0133871142 0.9670900408 2.348262335e-38
2.70273074 0.06152607544 0.2022078213 -0.232460946 0.03432957169 0.9719996857 2.348262335e-38
3.203491062 -0.1392532335 0.3437509946 -0.2517833079 0.004803525981 0.9677717148 2.348262335e-38
5.801653624 -1.729552984 1.177871108 0.3257152745 -0.2533519331 -0.9108909693 2.348262335e-38
2.281620847 -2.542373737 0.1235563002 -0.2470564521 0.01367043824 0.968904654 2.348262335e-38
2.709041119 3.260739088 0.2206863612 -0.3052165675 -0.08121499548 0.9488134545 2.348262335e-38
2.778052521 -1.932620811 0.2277735323 -0.2054178632 0.05150426657 0.9773181734 2.348262335e-38
2.767087221 -1.754015207 0.240587458 -0.2268035169 0.02131551035 0.9737072526 2.348262335e-38
2.185615371 -2.335840632 0.09872376262 -0.2410293958 0.01395385297 0.970417498 2.348262335e-38
2.700795723 -4.123580829 0.4030105679 0.9815724275 -0.1726134639 -0.08197659216 2.348262335e-38
2.777574003 1.478573173 0.2289989702 -0.2134593646 0.0041511941 0.9769431239 2.348262335e-38
2.771580325 0.2609274164 0.2064043615 -0.2377667515 0.01046017537 0.9712659556 2.348262335e-38
1.784654541 1.860041243 -0.02161568498 -0.3949003332 0.01450495306 0.9186094563 2.348262335e-38
3.289523721 1.961637219 0.3083982418 -0.288703235 0.05243285405 0.9559818188 2.348262335e-38
1.876647644 -0.2350283647 0.004497816125 0.2143941608 0.008948570056 -0.9767062337 2.348262335e-38
1.592153051 -1.536184485 -0.05143147494 -0.2590464177 0.02699472726 0.965487565 2.348262335e-38
2.790530384 0.3639101982 0.210681783 -0.2425435131 0.002196233949 0.9701380421 2.348262335e-38
4.474039912 1.99314642 0.6335276514 -0.2462787977 0.004501825725 0.9691885716 2.348262335e-38
3.376517081 2.077592587 0.314084053 -0.2179039537 -0.03357932832 0.9753923804 2.348262335e-38
3.178584307 -0.9383481592 0.3597598709 -0.2563390235 -0.005489828 0.9665713459 2.348262335e-38
1.964525652 -1.731476951 0.0293121446 -0.2457319161 0.01720146138 0.9691851914 2.348262335e-38
2.800127808 0.4565365136 0.2187428236 -0.2374302639 0.001119824549 0.9714039406 2.348262335e-38
2.374244642 -0.6420106769 0.1291655839 -0.2520668854 0.02304628442 0.9674353488 2.348262335e-38
2.876974747 4.447809786 0.3892430477 0.9900214876 0.1132280783 0.08388597298 2.348262335e-38
8.399494648 4.193311214 1.564291596 -0.2330106147 0.006236860251 0.9724541917 2.348262335e-38
3.685472822 -2.050754786 0.4810894668 -0.2689091606 -0.01264137973 0.9630825815 2.348262335e-38
1.880470103 -1.534545491 0.01561311905 -0.2499307647 0.02635605988 0.967904939 2.348262335e-38
2.777474606 4.958501516 0.4881898496 0.9447413422 -0.3082065878 0.1116803272 2.348262335e-38
3.429102421 2.059597969 0.34574157 -0.2093991321 0.001789866086 0.9778286148 2.348262335e-38
3.177465292 0.6731926891 0.3080032491 -0.2322144895 -0.004453561826 0.9726544076 2.348262335e-38
1.278787589 1.807906055 0.1138768047 0.1374492234 -0.9903669932 -0.01676095921 2.348262335e-38
2.288792592 -0.4444179326 0.1055175794 -0.2611219801 0.05831841783 0.9635425645 2.348262335e-38
2.315183401 -0.6417696923 0.1430080216 -0.2647236924 0.02011767888 0.964114436 2.348262335e-38
2.691794205 0.3707026164 0.1851480613 -0.2315931536 0.005258587708 0.9727985189 2.348262335e-38
2.31664602 -0.74634703 0.1413328648 -0.2586731552 -0.01016820859 0.9659113864 2.348262335e-38
1.30290399 1.235284309 -0.1378492142 -0.2427797518 -0.01305262666 0.9699936191 2.348262335e-38
2.817140818 4.160899162 0.3901720047 0.954586525 0.1926014488 0.2273087067 2.348262335e-38
2.673407952 0.2721577555 0.1835550577 -0.2397918915 -0.001333791109 0.9708233978 2.348262335e-38
3.097026757 2.277372496 0.6974474106 0.6943875608 -0.6956018404 -0.1842932312 2.348262335e-38
3.58053358 -3.158894426 0.4900786328 -0.1681215798 0.09851116439 0.9808316292 2.348262335e-38
3.505789518 2.422525764 0.5364442468 0.3303167066 -0.9300080539 0.1611703852 2.348262335e-38
1.995023489 -1.938527125 0.05756884514 -0.2476955138 0.005952631458 0.9688196419 2.348262335e-38
2.087782001 -2.133750947 0.07384559885 -0.2439677156 -0.002421473203 0.9697803309 2.348262335e-38
4.343949795 -3.019123793 0.7284144759 0.1500455049 -0.7912672592 -0.5927752281 2.348262335e-38
2.718210936 3.134670258 0.2218009084 -0.2594847051 0.006845379095 0.9657229565 2.348262335e-38
2.771551092 -1.833297173 0.2258913368 -0.216942122 0.04484572005 0.9751538223 2.348262335e-38
2.461556101 0.2607802823 0.1225456849 -0.2247829662 0.0259506268 0.9740632336 2.348262335e-38
1.879859038 -0.1372386289 0.00605613686 -0.2153942705 -0.01858843089 0.9763502335 2.348262335e-38
2.32213378 -2.631299853 0.1458672508 -0.2482127067 0.0128856164 0.9686198496 2.348262335e-38
2.592251745 -0.2376092117 0.1869999412 -0.2440594411 0.01280362706 0.9696757481 2.348262335e-38
2.492925591 0.870571057 0.1594010293 -0.2287900957 0.01550634795 0.9733522719 2.348262335e-38
1.29042448 2.161390066 -0.1465773276 0.2481250585 -0.003657111217 -0.9687211058 2.348262335e-38
2.583046062 -0.3380313473 0.1855594629 -0.2512824287 0.04247573615 0.9669813612 2.348262335e-38
2.987908023 -1.922150791 0.2892747905 -0.2354034701 0.01660964535 0.9717557954 2.348262335e-38
2.8858432 4.361089093 0.2945195915 0.9487838565 0.1635628702 -0.2702894395 2.348262335e-38
2.387357092 -3.340793657 0.1635215849 -0.2622740815 0.01232674518 0.9649146893 2.348262335e-38
5.586377144 1.39158386 0.9190487564 -0.2480992073 0.02567675868 0.968394283 2.348262335e-38
23.76962376 -41.00475121 6.025334835 -0.5661777214 0.8229441763 0.0469645671 2.348262335e-38
2.411742687 0.6932566563 0.1403015156 -0.2242551533 -0.01301014371 0.9744436168 2.348262335e-38
10.77745342 -19.20519447 1.907360077 -0.6487112816 0.341223084 0.6802503069 2.348262335e-38
2.189335654 -1.440188964 0.08392459464 -0.2326456379 0.02356697501 0.9722759921 2.348262335e-38
10.76446152 -19.34786606 1.933172107 -0.6449912587 0.3518297024 0.6783819992 2.348262335e-38
1.975228151 1.365181335 0.02101973395 -0.2208709217 0.00793572699 0.9752707625 2.348262335e-38
10.70998859 -19.41712761 1.94395721 -0.6449912587 0.3518297024 0.6783819992 2.348262335e-38
3.654957592 -1.052571803 0.4902821109 -0.2679522321 0.01584013017 0.9633019732 2.348262335e-38
3.16939942 -2.24305129 0.3278878232 -0.2073972701 0.05218677619 0.9768638148 2.348262335e-38
8.300254345 1.293165982 1.578924954 0.2336781044 -0.02174098404 -0.9720709198 2.348262335e-38
2.580135405 -0.4317376446 0.187212361 -0.2563997036 0.05360290261 0.9650833751 2.348262335e-38
2.990965128 -2.032835633 0.2865798101 -0.2346216954 0.05822908116 0.9703411947 2.348262335e-38
2.894104862 4.446388912 0.3033219427 0.919843608 0.05875181305 -0.3878607499 2.348262335e-38
11.16770697 -19.7389431 2.485774517 0.4999787611 -0.2510373035 -0.8288555427 2.348262335e-38
2.384503917 0.7665829388 0.1197066382 -0.2263898404 0.003306012369 0.974031165 2.348262335e-38
6.326626301 1.933036566 1.092791438 -0.2456939665 0.01411226387 0.9692447157 2.348262335e-38
2.838897944 -1.685614348 0.2355040759 -0.2498112688 -0.002873408825 0.9682902837 2.348262335e-38
1.983490038 2.953014517 0.0159109675 -0.2399818122 0.009662660204 0.9707292943 2.348262335e-38
2.479191393 0.8659751266 0.1297190617 -0.2287900957 0.01550634795 0.9733522719 2.348262335e-38
2.600959301 4.731127024 0.1960738822 0.1994489718 0.2504791397 -0.9473543731 2.348262335e-38
4.092955788 -0.8486443063 0.5939100434 -0.2400840446 0.06246355572 0.9687403965 2.348262335e-38
2.687191904 -1.525633673 0.2050411503 -0.2550373532 -0.001285880403 0.9669303465 2.348262335e-38
2.472585519 0.9568009708 0.1267888173 -0.2236293716 0.01000986997 0.9746228536 2.348262335e-38
2.377171 -2.938821852 0.1578511149 -0.2533992029 0.0165841095 0.9672196293 2.348262335e-38
4.170982189 -2.840316162 0.6904037547 0.2287581326 0.04830931929 0.9722838713 2.348262335e-38
2.441786051 2.655422211 0.1360615492 0.289922244 -0.00532182684 -0.9570354072 2.348262335e-38
2.349917531 -2.723908186 0.1347515509 -0.2503947288 0.01821536717 0.9679724584 2.348262335e-38
2.487876733 -1.14067773 0.1628698119 -0.2423726037 -0.01934257876 0.9699904049 2.348262335e-38
2.108030707 1.363483779 0.05343145946 -0.2213478513 0.003263079956 0.975189459 2.348262335e-38
2.482861932 2.960078287 0.1690964679 -0.2857874092 -0.0201489208 0.9580811958 2.348262335e-38
2.57438721 -3.545236588 0.2242673657 -0.6136079524 -0.01747033636 0.7894175499 2.348262335e-38
2.392130228 -0.9292007639 0.1286477154 -0.2436162827 -0.02593831078 0.9695247861 2.348262335e-38
3.082568312 -2.631382704 0.3484766364 -0.2483307 0.01981051964 0.9684727186 2.348262335e-38
2.975068873 3.68356343 0.3851109486 0.9947066729 -0.04502221894 0.09236684814 2.348262335e-38
2.669649951 1.460439388 0.1990027775 -0.2584553777 0.02595812643 0.9656743723 2.348262335e-38
2.798425754 1.580255985 0.2247801274 -0.2168966115 0.06061977126 0.9743105784 2.348262335e-38
3.914481878 -2.520338535 0.545272857 -0.4363800997 0.1331358416 0.8898579978 2.348262335e-38
2.605798006 -4.709100056 0.415225625 0.8639806584 0.4951828927 -0.09127609007 2.348262335e-38
2.884296715 1.650362343 0.2329437658 -0.2122566688 0.09430752562 0.9726526601 2.348262335e-38
3.174908304 1.949731755 0.2749280989 -0.2685371814 0.06220256945 0.9612588739 2.348262335e-38
2.674545451 0.6598135287 0.1917713074 -0.2345202487 -0.01935391493 0.9719185557 2.348262335e-38
4.277555943 2.380921284 0.5528903604 -0.2794683893 0.07873171857 0.9569214889 2.348262335e-38
3.271896839 2.062201381 0.2890844494 -0.2548344007 -0.08312059174 0.9634056235 2.348262335e-38
3.405053275 2.173178911 0.3197364381 -0.168743666 -0.3177157613 0.9330499827 2.348262335e-38
3.669109535 -2.147120047 0.4779203653 -0.2677323854 -0.01956471096 0.9632946548 2.348262335e-38
1.875917225 -1.637034634 0.01503620903 -0.2498529851 0.02314709662 0.9680070752 2.348262335e-38
2.690236919 0.4644571578 0.1896547316 -0.2406318303 -0.004008290234 0.9706081886 2.348262335e-38
3.280270129 2.246234685 0.3290330842 -0.2477796036 -0.5605620794 0.7901742993 2.348262335e-38
1.788835354 -1.43565848 -0.01163421504 0.2557416925 -0.02676042764 -0.9663747028 2.348262335e-38
6.299202442 1.040622075 1.107786258 -0.2452303854 0.02066481078 0.9692445634 2.348262335e-38
3.262996515 2.190713644 0.3413142761 -0.2162708049 -0.4546964224 0.8639896425 2.348262335e-38
2.183460633 -0.6390248225 0.09144659499 -0.2819221888 0.02216253053 0.9591812663 2.348262335e-38
7.163323243 -1.006080369 1.380107284 -0.294701672 0.7027445125 -0.6475346127 2.348262335e-38
2.409290756 2.757549967 0.152153526 -0.2967070289 0.001227057699 0.9549677656 2.348262335e-38
2.494029784 -3.559657764 0.1970186189 -0.4858325736 0.04925972208 0.8726627013 2.348262335e-38
2.588945968 0.4586584469 0.1672814914 -0.2192078767 -0.004068400186 0.9756696956 2.348262335e-38
6.266005039 3.885804892 1.067722619 0.4563949337 -0.7555877873 0.4698837731 2.348262335e-38
2.704159021 2.337463856 0.2004648298 0.1468574487 0.03224346168 -0.9886320089 2.348262335e-38
2.780040026 -1.041525338 0.2318712345 -0.2680935623 -0.01833329073 0.963218424 2.348262335e-38
4.379164219 -2.254964828 0.6624726951 -0.3345633952 0.08040990373 0.93893641 2.348262335e-38
1.922697147 -1.666913033 0.03998122367 -0.2492304004 0.02723949203 0.9680610609 2.348262335e-38
2.278381039 -0.7459363867 0.1148570741 -0.2612711706 -0.009446117278 0.9652192219 2.348262335e-38
22.83501816 -41.65721512 5.605819225 0.4868054599 -0.8706480976 0.07065645277 2.348262335e-38
2.794630051 1.53001523 0.2390009612 -0.2167261733 0.03826598623 0.9754821783 2.348262335e-38
2.849126124 -4.925590849 0.3150520116 0.8299374517 0.04986649767 0.5556232165 2.348262335e-38
4.219250023 -0.429351408 0.5889930204 -0.2523183418 0.01640093118 0.9675052785 2.348262335e-38
2.4718436 1.764709532 0.129446139 -0.2309299564 -0.03306529683 0.9724083717 2.348262335e-38
2.09030265 -2.23287783 0.07508597589 -0.2426189537 0.01117894298 0.9700572532 2.348262335e-38
2.479454321 0.06433848039 0.1549411995 -0.2207341177 0.02746090046 0.9749473566 2.348262335e-38
2.414311965 2.666967392 0.1550866887 0.289922244 -0.00532182684 -0.9570354072 2.348262335e-38
2.491690725 -3.8433626 0.2034970857 -0.4198183577 -0.1003713686 0.9020410938 2.348262335e-38
2.497973936 -1.234558889 0.1646315477 -0.2434018478 -0.013086333 0.9698372484 2.348262335e-38
1.579911548 2.062248725 -0.07781969613 -0.2447641643 0.006396487031 0.9695615446 2.348262335e-38
2.494936899 -0.333670327 0.1627943334 -0.2529313568 0.02708082428 0.967105143 2.348262335e-38
2.282493025 0.6649175237 0.104260082 -0.2300833663 -0.009626480983 0.9731233095 2.348262335e-38
2.485305202 -0.4336602196 0.162849965 -0.2521493504 0.05043105972 0.9663733302 2.348262335e-38
2.772622252 -4.223417091 0.2965291142 0.9344897702 -0.001214467264 -0.3559879134 2.348262335e-38
2.287466701 0.7657939037 0.1025227894 -0.238124443 0.01118018455 0.9711703008 2.348262335e-38
2.094327847 1.739459048 0.06439231119 -0.03561102838 -0.1227382435 0.9917999689 2.348262335e-38
2.590313252 -1.539870157 0.1818958512 -0.2440921365 0.0113109463 0.9696860788 2.348262335e-38
2.387221773 -3.040912231 0.1634960249 -0.2535009278 0.01350963727 0.9672408021 2.348262335e-38
1.530571461 -1.905689478 -0.0610164814 -0.2613590308 0.01275988865 0.9651573148 2.348262335e-38
2.216341257 2.240052402 0.09004026095 -0.2564828351 0.1720765037 0.9511078972 2.348262335e-38
2.276781702 -2.836434913 0.1269230522 -0.2527370217 0.01320110156 0.9674449487 2.348262335e-38
8.449206829 -0.2116362304 1.781088531 -0.4424619412 0.8061124389 -0.3929505903 2.348262335e-38
2.268271756 -2.74730897 0.1249065086 -0.2515717833 0.0206199154 0.9676189627 2.348262335e-38
8.629131794 0.02937103575 1.686726451 0.290831176 -0.2387395294 -0.9265099375 2.348262335e-38
2.471828497 1.159002863 0.1546561855 -0.2301184057 -0.01562345627 0.9730372177 2.348262335e-38
2.445045153 2.755948623 0.1338198731 -0.2967070289 0.001227057699 0.9549677656 2.348262335e-38
3.48216486 -3.872769594 0.5777347684 0.08905379404 0.150976754 -0.9845178726 2.348262335e-38
2.381353155 -1.046533965 0.1252707345 -0.2458683444 -0.02454606126 0.968992388 2.348262335e-38
4.2530334 -1.853275835 0.6346814334 -0.2627502273 -0.01055184075 0.9648061861 2.348262335e-38
2.490326691 0.05876125656 0.1378819287 -0.2190871184 0.02835395007 0.9752932318 2.348262335e-38
4.257472992 -2.124070168 0.634001106 -0.2607908958 -0.008574684448 0.965357231 2.348262335e-38
2.495753426 0.1580589347 0.1516076373 -0.2225012985 0.03060022227 0.9744520504 2.348262335e-38
43.40448761 -76.21974945 11.59423256 0.396760483 -0.9173736356 0.03172903665 2.348262335e-38
2.078217109 2.844854037 0.03484521187 -0.2393265254 0.007256414453 0.9709120242 2.348262335e-38
3.105305719 2.271608853 0.7808450639 0.6869351677 -0.6990279572 -0.198695723 2.348262335e-38
1.962416336 -1.935832664 0.03188708053 -0.2482732653 0.006139409054 0.9686705804 2.348262335e-38
2.581691441 1.468477011 0.1765866797 -0.274738248 0.01390929709 0.9614184451 2.348262335e-38
1.888451134 2.056938825 0.005688516471 -0.3679949596 0.08628120142 0.925815999 2.348262335e-38
2.770147443 1.642584801 0.2119415104 -0.2150405094 0.07693973372 0.9735696465 2.348262335e-38
2.784007621 -1.124779832 0.2480050266 -0.2692181007 -0.01309572461 0.9629901953 2.348262335e-38
1.878204401 -1.735694885 0.01648208347 -0.2503177554 0.01617938716 0.9680285372 2.348262335e-38
1.662383172 1.803160451 0.2863302136 0.03150723025 0.9463330139 -0.3216537286 2.348262335e-38
2.972911954 1.850976109 0.2320230901 -0.1927578532 0.07902321788 0.9780591705 2.348262335e-38
3.257621462 2.154877533 0.2973819402 -0.2781687381 -0.3038372467 0.9112107773 2.348262335e-38
2.843956113 4.827148676 0.4414281249 0.9193772018 0.1749776282 0.3523185922 2.348262335e-38
2.496100167 0.3742922569 0.1578967882 -0.2283015245 0.003761545785 0.9735832089 2.348262335e-38
2.191387773 -0.7250116633 0.09159866513 -0.2751936279 0.003343442767 0.9613830082 2.348262335e-38
3.691514075 2.447941124 0.786621496 0.3809243231 -0.884494388 0.2693813981 2.348262335e-38
2.494879352 0.2607820266 0.1628117578 -0.2240554119 0.0244825931 0.9742688412 2.348262335e-38
2.483517736 -1.535536788 0.158813145 -0.2196951982 0.03143906167 0.9750618469 2.348262335e-38
2.374889955 1.554996297 0.1162590603 -0.2371575409 -0.002468859345 0.9714680672 2.348262335e-38
2.086641325 -2.331970837 0.07416996546 -0.2439041777 0.01088416971 0.9697382569 2.348262335e-38
2.388512785 -1.145018859 0.1505453858 -0.2415384963 -0.01580681189 0.97026249 2.348262335e-38
2.288642883 2.5624883 0.1050369319 -0.2815083255 0.04220471754 0.9586301813 2.348262335e-38
2.306547403 -2.756765902 0.1478404887 -0.2502346659 0.0195815559 0.9679871769 2.348262335e-38
5.546146711 0.5711999138 0.9246861736 -0.2453873512 0.02073958209 0.9692032386 2.348262335e-38
5.970613639 2.766877015 0.9924868146 -0.235276753 0.009395714824 0.9718830022 2.348262335e-38
2.42597971 -0.1192877993 0.1563092828 -0.2410497575 0.001075737841 0.9705121623 2.348262335e-38
10.81777096 1.250737905 2.200726509 -0.4760865802 0.7169451971 -0.5092456701 2.348262335e-38
2.687477767 -1.734083225 0.2104317211 -0.2210280914 0.03384578498 0.9746799709 2.348262335e-38
2.60306708 4.564419746 0.1978872369 0.2238764356 0.1051143412 -0.9689325657 2.348262335e-38
3.546134138 1.075735402 0.4062500239 -0.2370604671 0.01342923279 0.9714020747 2.348262335e-38
1.887116984 1.562376051 0.005092231366 -0.2519717431 -0.1248489464 0.9596473213 2.348262335e-38
2.681745927 -4.724151055 0.4066895445 0.844623918 -0.2522749959 0.4721946246 2.348262335e-38
1.382762732 -2.033276805 -0.1078698017 -0.2607842143 0.01368736758 0.9653000826 2.348262335e-38
7.432785511 2.750945568 1.351888061 -0.2396858836 0.006145038909 0.9708310438 2.348262335e-38
2.11005191 0.4552290154 0.0527289266 -0.2423022431 -0.008614956796 0.9701625665 2.348262335e-38
2.126012993 0.5923372865 0.06341731698 -0.2506931225 -0.01443731095 0.9679589466 2.348262335e-38
2.360655378 -0.4274997553 0.1224859953 -0.2593808511 0.05622278425 0.9641372167 2.348262335e-38
2.866801542 -4.51501639 0.310842448 0.8032973315 -0.1809561196 -0.567422488 2.348262335e-38
2.440222263 -0.3899866641 0.1372956187 -0.263338555 0.04278971461 0.963754038 2.348262335e-38
2.111068227 1.165664174 0.05454318597 -0.2162960918 0.009076979197 0.9762856186 2.348262335e-38
2.572395205 -3.739214023 0.2232074117 -0.4510274556 -0.1124106788 0.8854027748 2.348262335e-38
2.286750864 0.9699666465 0.09301163651 -0.242223176 0.005449122083 0.9702052567 2.348262335e-38
1.979263914 1.867194941 0.02524729368 0.05986789791 -0.004118935101 -0.9981978106 2.348262335e-38
2.269692458 0.8633426565 0.09539958949 -0.2395862874 0.02059367507 0.9706566393 2.348262335e-38
3.515141845 1.242023855 0.392519772 -0.2299114273 0.01424332642 0.9731073236 2.348262335e-38
2.379071501 -3.131436136 0.1618868212 -0.2569795135 0.01302050784 0.9663291344 2.348262335e-38
2.188455922 -2.632401211 0.1048021173 -0.2531656712 0.006740135402 0.9673994591 2.348262335e-38
2.375999027 2.759943353 0.1203817907 -0.2904023511 0.005498499793 0.9568888342 2.348262335e-38
2.291424081 -1.04183884 0.114963945 -0.2457773179 -0.02346688826 0.9690422154 2.348262335e-38
2.446733654 0.1958033666 0.1198349744 -0.225786792 0.03278869932 0.9736247869 2.348262335e-38
1.881651267 -1.836798559 0.01894875117 -0.2500825361 0.01297516127 0.9681375782 2.348262335e-38
2.495520982 0.3614253998 0.1285955486 -0.2243963651 0.01701370697 0.9743494266 2.348262335e-38
2.89875102 1.834338665 0.2209436744 -0.1641218714 0.0626787358 0.9844467418 2.348262335e-38
1.625839008 -1.16135131 -0.05660461304 0.2400716617 -0.002814913248 -0.9707510873 2.348262335e-38
3.068982005 1.980861366 0.2288566008 -0.2098401963 0.01503137548 0.977620146 2.348262335e-38
4.611983585 1.242570543 0.6683983565 -0.2409183543 0.01166782281 0.9704752488 2.348262335e-38
1.783098847 -1.532677634 -0.00921535733 -0.2542363973 0.02385222451 0.9668479331 2.348262335e-38
3.153338718 2.068330383 0.2577274263 -0.2804404319 -0.09197882418 0.9554543736 2.348262335e-38
3.203408384 -2.046119022 0.3475364208 -0.237249414 0.02284402909 0.9711801408 2.348262335e-38
2.882754012 4.863282329 0.3914520129 0.9710747553 0.1430880126 0.1911534469 2.348262335e-38
2.810894251 4.807360172 0.424585402 0.9365391599 0.1818255035 0.2997230193 2.348262335e-38
2.841991544 4.983601411 0.4545425723 0.973526379 -0.1102221747 0.2002435058 2.348262335e-38
3.947300672 -0.2774067819 0.5118225813 -0.256859062 0.006544912394 0.9664267103 2.348262335e-38
3.024009109 1.867046893 0.2460384443 -0.2064908123 0.07955233779 0.9752091929 2.348262335e-38
4.015365124 -2.616123199 0.728641212 0.8360656228 -0.5434894228 0.07492343885 2.348262335e-38
2.286634584 2.961996535 0.09782254074 -0.2835080265 -0.001407847085 0.95896883 2.348262335e-38
1.784110576 -1.636715779 -0.007288333013 -0.2577986992 0.02344733494 0.9659141024 2.348262335e-38
2.948786497 1.785145163 0.2343911976 -0.2095454498 0.09523664883 0.9731498781 2.348262335e-38
2.377183199 0.2619137796 0.1082917755 -0.2367701893 0.02785732719 0.9711662303 2.348262335e-38
3.959671974 2.577340364 0.8475329876 -0.4537225153 0.8859236533 -0.0963076298 2.348262335e-38
1.916699314 -1.933552337 0.04410985112 -0.2481936366 0.007296890497 0.9686829585 2.348262335e-38
2.28296051 0.06756851883 0.1063140924 -0.253176782 0.04196537665 0.966509402 2.348262335e-38
2.189066549 -0.9376630733 0.08941467338 -0.2541746941 -0.01967946012 0.9669580879 2.348262335e-38
2.288548657 -0.03318287507 0.1070604607 -0.2558791502 0.01114977903 0.966644476 2.348262335e-38
2.173488736 2.368671139 0.07864038397 -0.2789989418 0.03537160306 0.959639745 2.348262335e-38
2.39605901 -1.25080608 0.1508526471 -0.2379591006 -0.01257470987 0.9711937722 2.348262335e-38
2.279678496 -0.1318071845 0.09913081626 -0.2642527434 -0.01524340249 0.9643329955 2.348262335e-38
2.385187179 -1.330844 0.1490981672 -0.2354025196 0.004049215994 0.9718895295 2.348262335e-38
2.803591847 -4.838061651 0.3661708111 0.8299374517 0.04986649767 0.5556232165 2.348262335e-38
9.146943092 1.850993633 1.776865005 0.2384451703 -0.02592757458 -0.9708097968 2.348262335e-38
2.996447146 -3.131262362 0.3253163621 -0.2833783264 0.1166971772 0.951881554 2.348262335e-38
2.863668394 3.138715839 0.2790316492 0.7294672279 0.008449876985 -0.6839635685 2.348262335e-38
1.779535547 1.291639902 -0.02410479635 -0.2337666516 0.01976100371 0.9720918966 2.348262335e-38
4.473025799 1.098680377 0.6383132339 -0.2465307295 0.01023211189 0.9690809581 2.348262335e-38
2.443550825 -1.360363066 0.1358065977 -0.2390708485 0.002845638441 0.9709979566 2.348262335e-38
12.04467201 2.165008306 2.690633535 0.6125098941 -0.5179038196 -0.5971660266 2.348262335e-38
2.674921989 -4.79997015 0.4064196646 0.9038890586 0.4164752612 0.0976367067 2.348262335e-38
1.600196472 -1.637891195 -0.04936267546 -0.2596933429 0.02356758541 0.9654035097 2.348262335e-38
2.764724135 -2.025079449 0.2326435298 -0.2094216016 0.04758288382 0.9766670169 2.348262335e-38
2.572663975 -3.830732012 0.2247280687 -0.4399150613 -0.1307673682 0.8884675764 2.348262335e-38
3.465788245 1.182462215 0.3820004277 -0.241029705 0.01226446975 0.9704402424 2.348262335e-38
2.387624472 -3.241523713 0.165175695 -0.2589874116 0.01054195546 0.9658231659 2.348262335e-38
6.209345341 1.327767849 1.074544668 -0.2480108437 0.02731202193 0.9683721779 2.348262335e-38
2.048182329 1.981448611 0.03515875957 -0.1943351619 0.1423524482 0.9705511967 2.348262335e-38
2.280122419 2.657211761 0.09902215563 -0.2768444297 0.006461801603 0.9608930257 2.348262335e-38
3.177206278 -3.044190943 0.3753092215 -0.3320434507 0.01326741999 0.9431707811 2.348262335e-38
1.990151073 -2.236128518 0.0569185244 -0.2335662382 0.004010499576 0.9723326222 2.348262335e-38
2.379714012 2.962958986 0.1178854555 -0.3061556288 -0.01447518586 0.9518714199 2.348262335e-38
2.440847158 2.967880845 0.1338597536 -0.3135089985 -0.01712026561 0.9494308844 2.348262335e-38
1.959084243 -2.040186822 0.03271261603 -0.2426341381 0.002893356092 0.9701135519 2.348262335e-38
2.279205505 0.1613062481 0.09619641479 -0.2548130048 0.02513895957 0.9666635223 2.348262335e-38
1.989163465 1.268160794 0.02222667346 -0.2137489896 0.0143452653 0.9767832834 2.348262335e-38
1.880576925 -1.936488156 0.0187821322 -0.2490007205 0.006752076273 0.9684797627 2.348262335e-38
10.95978165 4.430264473 2.203762531 0.2456665034 -0.01721418768 -0.9692015481 2.348262335e-38
2.471132551 1.365635037 0.1277479859 -0.2619831823 -0.004679157877 0.9650610953 2.348262335e-38
2.114812946 -0.6616240501 0.06488936396 -0.2895581141 0.02097005082 0.9569306953 2.348262335e-38
2.378350832 0.3663200587 0.1149280549 -0.2303634339 0.0002171581049 0.9731046404 2.348262335e-38
1.921533799 -1.731474257 0.04226037114 -0.2480492992 0.0174481205 0.9685902685 2.348262335e-38
2.673893134 1.762522976 0.1895273676 -0.2037021679 0.00868468846 0.9789943835 2.348262335e-38
1.973311845 2.161543671 0.02099173977 -0.342502634 0.1321098569 0.9301822033 2.348262335e-38
1.685482358 -1.334325343 -0.04062899453 -0.2538308741 0.02437971456 0.9669413203 2.348262335e-38
3.979555798 -2.432333994 0.5634410858 -0.4249465073 0.2160284619 0.8790632341 2.348262335e-38
2.792314506 4.978796577 0.4002920002 0.9708953195 -0.1790741935 0.159043113 2.348262335e-38
1.670489347 -1.175866878 -0.05080251359 0.2472292266 -0.001526599193 -0.9689558189 2.348262335e-38
2.403108537 1.241734236 0.1427157707 -0.2508943389 -0.004687131922 0.9680031309 2.348262335e-38
1.909423992 -2.039612576 0.04409299325 -0.247835851 0.00515920301 0.9687883017 2.348262335e-38
3.280344146 -1.735880443 0.3722495607 -0.2798584326 -0.01260676465 0.9599585029 2.348262335e-38
2.196134753 -1.040294471 0.08706279072 -0.2447081344 -0.02675349486 0.9692276201 2.348262335e-38
3.09032774 2.06515034 0.2630464186 -0.2379699284 -0.06788830129 0.9688970491 2.348262335e-38
2.305992126 -3.02540946 0.1488048434 -0.2559431604 0.008351678431 0.9666557547 2.348262335e-38
2.948735726 3.360031259 0.4684342161 0.9987044125 0.02923661483 -0.0416499321 2.348262335e-38
2.279166849 -0.2385936457 0.1005123821 -0.2594869251 -0.01163575134 0.9656765219 2.348262335e-38
2.400133292 -1.432761298 0.1499979579 -0.229709523 0.02229637807 0.973003806 2.348262335e-38
1.786447167 1.466924118 -0.02326111798 -0.2589523161 -0.03042439818 0.9654108214 2.348262335e-38
2.706738234 -4.897185326 0.4040304422 0.9333670048 0.3381932587 0.1202137853 2.348262335e-38
3.105408748 1.990894794 0.2524668798 -0.2570906692 0.01789881725 0.9662215171 2.348262335e-38
3.202921846 0.05544894165 0.3425657126 -0.2531806768 0.03977804449 0.9666008753 2.348262335e-38
2.309661627 -3.138919632 0.1488168289 -0.2587174063 0.01181179576 0.9658808338 2.348262335e-38
2.083244426 3.269316775 0.05267898421 -0.2600036206 -0.02773835406 0.9652091488 2.348262335e-38
2.189097292 -2.840924067 0.1081292712 -0.2509234539 0.01342232303 0.9679138709 2.348262335e-38
2.84883213 -0.3892284036 0.2363925874 -0.2262098933 0.030506852 0.9736007478 2.348262335e-38
1.967978174 2.054651716 0.02621493089 -0.4594245397 0.07834143059 0.884755171 2.348262335e-38
4.175222317 -2.738553325 0.6647796432 0.2576646462 0.03666286889 0.9655385876 2.348262335e-38
1.648102709 1.192734906 -0.04782387984 -0.2331818253 0.003316492901 0.9724274971 2.348262335e-38
3.190623689 -2.543911886 0.370099026 -0.2378542313 0.05111066376 0.969955187 2.348262335e-38
2.190653605 -0.1393830207 0.08020554296 -0.2604657137 -0.01485199784 0.965368857 2.348262335e-38
2.207188272 -0.04794706646 0.08257069096 -0.2562369828 -0.002405489504 0.9666109984 2.348262335e-38
5.284444173 1.853744984 0.8319607377 -0.2403909977 0.0121586641 0.9705999872 2.348262335e-38
2.201935454 0.07358215266 0.0844468791 -0.2439825987 0.02165113994 0.9695378898 2.348262335e-38
1.960177231 -2.139594746 0.03232001736 -0.2376265058 0.002055119867 0.9713544257 2.348262335e-38
1.685112234 -1.238039122 -0.04183896478 0.2493929295 -0.01830251384 -0.9682294071 2.348262335e-38
2.285662963 2.755968351 0.09825405421 -0.2727082309 0.01767672455 0.9619343814 2.348262335e-38
1.878255543 -2.037994447 0.0179326642 -0.2475331298 0.004688531018 0.9688680856 2.348262335e-38
2.091234875 -0.8354287624 0.06628379152 0.2637190943 0.01405704768 -0.9644970911 2.348262335e-38
1.783355779 -2.135503045 -0.001878607544 -0.2553934646 0.005928887517 0.9668190247 2.348262335e-38
2.379795881 3.060500493 0.1190227012 -0.3090903196 -0.03002453201 0.9505586262 2.348262335e-38
1.782832995 -1.734992829 -0.005158217964 -0.2570079421 0.01478647029 0.9662961647 2.348262335e-38
2.761851668 1.950861514 0.2035441324 -0.1369761627 -0.02828879938 0.9901703261 2.348262335e-38
5.92464447 3.469725966 0.976552099 -0.2792439712 0.01064641379 0.9601611627 2.348262335e-38
2.812962744 5.050071504 0.3812805249 0.9757160412 -0.1770404968 0.1289762357 2.348262335e-38
3.010951201 2.053205331 0.2303577562 -0.1620774315 -0.05485048385 0.9852524197 2.348262335e-38
3.776753596 1.373926997 0.4582072369 -0.2342825213 -0.01295687743 0.9720822082 2.348262335e-38
3.32789588 1.885133863 0.3420216441 -0.2948923003 0.112643599 0.9488677204 2.348262335e-38
1.180980208 1.834048677 0.07477327032 0.07931711657 -0.9901902731 -0.1150305092 2.348262335e-38
1.251800418 1.856171703 -0.1659507334 -0.2316259488 0.02361706436 0.9725182025 2.348262335e-38
2.183964427 2.56823047 0.07674877322 -0.2704129357 0.04020114461 0.9619047314 2.348262335e-38
1.999605843 2.169191156 0.04880692331 0.2729640406 -0.1276589318 -0.9535165597 2.348262335e-38
2.188067932 -0.2366356595 0.07610636773 -0.2544490387 -0.002448186339 0.9670830849 2.348262335e-38
7.779975891 -0.8215164065 1.681534243 0.7155820838 -0.4375389604 -0.5445199165 2.348262335e-38
1.782981184 1.562803824 -0.02301043675 -0.2789920921 -0.02273670271 0.960024195 2.348262335e-38
2.185248798 -0.4361102639 0.07610421627 -0.2588134016 0.04395772204 0.9649265992 2.348262335e-38
2.804982567 -4.824954796 0.295582372 -0.5365294225 -0.01984113249 -0.8436483321 2.348262335e-38
4.754196008 -1.352372169 0.7757909795 -0.2491168575 -0.007816208695 0.968441892 2.348262335e-38
2.805239995 -4.742013984 0.2975157764 0.4748495271 0.03784204042 -0.879253039 2.348262335e-38
2.382098865 -3.528253293 0.1676499605 -0.3068574481 0.05087359238 0.950394857 2.348262335e-38
2.097260825 -0.4322509048 0.05346969911 -0.2437765381 0.03115071813 0.969331023 2.348262335e-38
6.531737804 0.433837533 1.170758963 -0.2424305818 0.01684076413 0.9700225779 2.348262335e-38
2.379133129 -3.452988005 0.1625788063 -0.2614537271 0.01770486533 0.9650536184 2.348262335e-38
1.878869163 -2.138248748 0.01970065201 -0.2451540911 0.004826191002 0.9694721138 2.348262335e-38
2.178412642 1.066520699 0.07323766074 -0.2295155373 -0.0003649202277 0.9733049291 2.348262335e-38
2.029331684 0.9752993882 0.0586223975 0.2190768746 -0.002626716175 -0.9757040655 2.348262335e-38
1.978389936 1.963324606 0.02585133591 0.228075394 -0.1782056985 -0.9571960842 2.348262335e-38
42.59460449 -76.40182495 12.69857979 0.3859930465 -0.9219721897 0.0312513903 2.348262335e-38
8.460977554 3.515036344 1.595742583 -0.2316881093 0.0151768459 0.9726717243 2.348262335e-38
23.50032043 -41.17539597 5.896789074 -0.5582049841 0.8292926641 0.02609354483 2.348262335e-38
1.68687156 -1.536130695 -0.03521623488 -0.2650714194 0.02675530882 0.9638575082 2.348262335e-38
2.468509568 1.568940494 0.1264900921 -0.2477573585 0.0005792771619 0.9688219422 2.348262335e-38
2.877958473 5.057008593 0.3758871759 0.9843062492 -0.1273959179 0.1221126031 2.348262335e-38
9.010201454 4.662443399 1.705904782 -0.2154842318 -0.01456180423 0.9763987401 2.348262335e-38
2.976082632 2.177356516 0.2224912558 -0.2182657086 -0.1404890292 0.9657240357 2.348262335e-38
6.661408901 1.895685136 1.175783992 -0.2343013494 0.007199826188 0.9721373566 2.348262335e-38
2.987579703 2.241970619 0.2324948857 -0.2441674857 -0.1649366009 0.9556035562 2.348262335e-38
2.689585103 -1.128262672 0.2115585663 -0.265893655 -0.01754381642 0.9638427147 2.348262335e-38
2.187276065 1.655233005 0.07793946369 -0.2096707905 -0.05489551915 0.9762298098 2.348262335e-38
1.784142668 -1.934084657 -0.001645637909 -0.256129109 0.0006145519206 0.9666423857 2.348262335e-38
1.984691851 -2.429610074 0.05451720813 -0.2387617016 0.01013253968 0.9710253248 2.348262335e-38
7.653275013 3.275455475 1.39009583 -0.2376419283 0.01328371313 0.9712619919 2.348262335e-38
3.061584294 -0.2473503152 0.3035113836 -0.2448907797 -0.000147567237 0.969550661 2.348262335e-38
1.889289096 1.963688564 0.006929649897 -0.3573769381 0.1540635232 0.9211656501 2.348262335e-38
2.196329713 -1.24018928 0.08629064261 -0.230018007 -0.0005677151087 0.9731862073 2.348262335e-38
2.804176062 -4.945233136 0.2851127219 0.8612751194 0.1944064696 0.4694798113 2.348262335e-38
1.874088827 -2.633010864 0.02403683889 -0.2456606195 0.009317405746 0.9693111193 2.348262335e-38
2.686797539 -4.331698577 0.2469231586 -0.4874501406 -0.1102986354 0.866156205 2.348262335e-38
6.497545242 0.2649578725 1.165796657 -0.2428759913 0.01692351905 0.9699097109 2.348262335e-38
45.35961914 -74.60346222 13.64127922 -0.176557964 0.983828468 0.03014682246 2.348262335e-38
1.640664965 -1.233687967 -0.06360771695 -0.2457092302 0.01300085835 0.9692563912 2.348262335e-38
2.383170545 -3.638631076 0.1717595812 -0.3279066169 0.02081985924 0.9444806955 2.348262335e-38
3.500270271 -1.728654051 0.4434171259 -0.2691416256 -0.01146355137 0.9630323838 2.348262335e-38
2.489935833 3.06299563 0.1702745513 -0.2825369923 -0.03378149208 0.958661389 2.348262335e-38
2.557571332 -3.632806142 0.221701915 -0.5500604595 0.009134333194 0.8350748798 2.348262335e-38
2.068743825 0.8903780878 0.03149247355 0.2194302533 -0.006262479617 -0.97560809 2.348262335e-38
4.14810276 -2.759124517 0.7952990532 0.6508558485 -0.4851071632 0.5840014595 2.348262335e-38
2.580355835 -3.958804274 0.2268400431 -0.4000099957 -0.05332197679 0.9149583434 2.348262335e-38
2.082625985 0.9692753255 0.05277789384 0.222585369 -0.0001769926457 -0.974913187 2.348262335e-38
1.872713609 -2.234149467 0.02065687622 -0.2439642202 0.00448467672 0.9697738638 2.348262335e-38
2.189322591 1.170855224 0.07349443715 -0.2283224633 0.007404603069 0.9735574069 2.348262335e-38
8.473358154 3.487276792 1.590945005 -0.2324516896 0.01381844058 0.9725097751 2.348262335e-38
1.686530834 -1.635027669 -0.03315929507 -0.2675968798 0.02123999102 0.9632968248 2.348262335e-38
2.078695854 0.2618196588 0.05498805595 -0.2341811101 0.02744278106 0.9718055883 2.348262335e-38
2.29843092 3.209230423 0.1433647424 -0.2920859342 -0.01812564358 0.9562203031 2.348262335e-38
2.398354828 -4.039257288 0.1819170155 0.2411323045 -0.0004839090854 -0.9704921316 2.348262335e-38
1.706646509 -3.03841726 -0.01155395172 0.2436092051 -0.01545505105 -0.9697503269 2.348262335e-38
1.577340738 -1.145188708 -0.07464656335 0.2345656725 -0.002159383588 -0.9720978769 2.348262335e-38
2.755548865 -0.9476600736 0.2220540773 -0.2617695583 -0.01613739169 0.9649954834 2.348262335e-38
1.61273637 -1.238462942 -0.05596105834 -0.2457092302 0.01300085835 0.9692563912 2.348262335e-38
2.13119173 0.1120640039 0.0607301369 -0.2449335156 0.0243129491 0.9692349836 2.348262335e-38
2.085914581 1.060945221 0.05585549187 -0.2194859077 -0.00113690212 0.975615008 2.348262335e-38
2.001708984 2.261797706 0.0452508703 -0.2957905696 0.0680966844 0.9528225336 2.348262335e-38
1.915145254 -2.230128574 0.0446570359 -0.2422526037 0.005132749703 0.9701996345 2.348262335e-38
9.615486622 0.5519042611 2.02788353 -0.1832444595 0.4262392925 -0.8858563843 2.348262335e-38
1.130767703 1.589969039 0.3065746129 0.2052891852 -0.9372466743 -0.2818244524 2.348262335e-38
2.076638079 -1.061530638 0.05553033278 -0.2530402247 -0.0005268119904 0.9674556151 2.348262335e-38
3.516318679 -1.918374181 0.4429301023 -0.2768482044 -0.01380823746 0.9608144484 2.348262335e-38
1.9902133 -2.536842058 0.05707676787 -0.2408797345 0.01234295248 0.9704764835 2.348262335e-38
2.10259227 -1.132537136 0.06240746038 -0.2332804664 -0.00320922398 0.9724041983 2.348262335e-38
1.783704979 1.764708053 -0.02113867843 -0.3918361386 0.01742860319 0.9198699279 2.348262335e-38
1.615369549 1.184882439 -0.0581583203 0.2348421575 -0.001630478081 -0.972032151 2.348262335e-38
1.607518291 1.265136981 -0.05772613883 -0.2309697413 0.00370726608 0.9729538708 2.348262335e-38
2.185971928 -3.14041117 0.1104746327 -0.2518494896 0.01108399236 0.9677029398 2.348262335e-38
2.879647692 -3.5651323 0.3547821939 0.2079467254 -0.3431067573 -0.9159890351 2.348262335e-38
2.052014685 -0.136728479 0.02969355696 -0.2347259742 -0.006705709675 0.9720384511 2.348262335e-38
2.083341616 -2.841340644 0.07781141731 -0.2504454361 0.01286493449 0.968045235 2.348262335e-38
9.005270004 0.01571717765 1.820707083 0.4076716465 -0.1080159292 -0.9067173692 2.348262335e-38
1.878137461 -2.333515724 0.02221231345 -0.2444948555 0.007185087946 0.9696239684 2.348262335e-38
1.973083019 2.265412471 0.0198911524 -0.2996087341 0.06641272887 0.9517478426 2.348262335e-38
2.063001633 0.172663187 0.02782620573 -0.2366723186 0.0234206279 0.9713072057 2.348262335e-38
1.963064045 1.76720167 0.02513817402 0.2780968161 0.08803089696 -0.9565107015 2.348262335e-38
1.683230514 -1.737426882 -0.03140012005 -0.2636297931 0.01864495253 0.9644437246 2.348262335e-38
1.989204454 1.071549702 0.04359066786 0.2121331011 0.00495124794 -0.9772282398 2.348262335e-38
2.083424159 0.2682483335 0.03032874449 -0.2341811101 0.02744278106 0.9718055883 2.348262335e-38
2.850216627 5.184524298 0.3634384274 0.9561179678 -0.2635111823 0.1280636109 2.348262335e-38
1.548605919 -1.080724239 -0.0771674663 0.2424377661 -0.01303866793 -0.9700793384 2.348262335e-38
3.589674759 -2.152200985 0.4535181701 -0.2784120797 -0.02372756199 0.9601685876 2.348262335e-38
1.60394853 -1.340673158 -0.05434343494 -0.2543705578 0.02105402331 0.9668776279 2.348262335e-38
1.597533852 -1.438554406 -0.05254962342 -0.2586236405 0.02674232715 0.9656079228 2.348262335e-38
5.074122667 2.930727124 0.7501059473 -0.2732218393 0.04749546089 0.9607778139 2.348262335e-38
2.031819582 0.2271869481 0.0460387617 -0.2328336039 0.03075107612 0.9720302898 2.348262335e-38
1.992487073 0.0904783085 0.0428244732 0.228509524 -0.01498921014 -0.9734262792 2.348262335e-38
2.00895803 2.361645174 0.0462183945 -0.2546929092 0.02016895385 0.9668116338 2.348262335e-38
2.004798929 -0.0745841476 0.0429585787 0.2265233974 -0.00145500212 -0.9740046373 2.348262335e-38
1.990492162 -2.64052816 0.05808138608 -0.2410684028 0.006968274045 0.9704831108 2.348262335e-38
8.200708389 4.713711739 1.518456101 0.2333353815 0.0294019519 -0.9719517092 2.348262335e-38
7.891393662 2.388564825 1.47013545 0.2407715071 -0.01724464718 -0.9704286185 2.348262335e-38
1.564968297 1.255624796 -0.07206634677 -0.2341131462 0.002255474594 0.9722067412 2.348262335e-38
2.304760629 -3.63923994 0.151799584 -0.2496711389 0.02691553098 0.9679565469 2.348262335e-38
2.080805983 -2.938195365 0.08281268021 -0.25122021 0.01683667631 0.9677835153 2.348262335e-38
1.12042836 1.86531949 -0.1864965275 0.6464301179 -0.1479835488 0.74848445 2.348262335e-38
2.009899497 0.9481489063 0.0271616811 0.2151128908 -0.002136415789 -0.9765868522 2.348262335e-38
2.056335151 2.47271049 0.03130546723 -0.2509698476 0.01315619626 0.9679054965 2.348262335e-38
43.25875092 -76.18013 12.26538372 0.3679198975 -0.9254261097 0.09067229209 2.348262335e-38
1.959593256 0.08680939427 0.02272961037 0.2318674693 -0.0143889058 -0.9726409595 2.348262335e-38
2.100628853 2.666346371 0.05587293254 -0.2430277321 0.006867237922 0.9699950322 2.348262335e-38
2.180985894 -3.829975367 0.1244327064 0.2449723841 -0.02226243504 -0.9692744271 2.348262335e-38
4.028085232 0.05642325654 0.5428257465 -0.2413505732 0.01177138991 0.9703665984 2.348262335e-38
3.512354994 -1.52308867 0.4434917927 -0.2668737218 -0.01385504968 0.9636319081 2.348262335e-38
2.058894217 1.076776713 0.03255498038 -0.2122320081 -0.0035826746 0.97721274 2.348262335e-38
