# .PCD v0.7 - Point Cloud Data file format
VERSION 0.7
FIELDS x y z normal_x normal_y normal_z rgb
SIZE 4 4 4 4 4 4 4
TYPE F F F F F F F
COUNT 1 1 1 1 1 1 1
WIDTH 512
HEIGHT 1
VIEWPOINT 0 0 0 1 0 0 0
POINTS 512
DATA ascii
15.19146442 -2.116097927 0.9891845584 0.4088273729 -0.8508720852 -0.3299649585 5.988028598e-41
19.14997101 -15.50733948 1.287088871 0.8685830996 -0.4945560498 -0.0312683962 5.988028598e-41
29.12166405 -7.923097611 3.060275316 0.5129965661 -0.3987317973 -0.7601627963 5.988028598e-41
54.34637451 -44.67238998 3.748461485 -0.5641979962 0.8252452583 -0.0255124405 5.988028598e-41
5.233956838 3.471977019 0.7905291945 -0.04216087965 0.9967094942 0.06922892771 5.988028598e-41
14.31380526 2.176662127 1.918968638 -0.3331120188 -0.8842969761 0.3271929722 5.988028598e-41
31.92673492 18.85886002 4.26414299 0.6653653362 0.5264117941 0.5293199339 5.988028598e-41
34.18529129 16.53317642 6.129947662 0.9980845025 0.05676826385 -0.02459044833 5.988028598e-41
14.47041988 -4.108358383 1.530596614 0.8648293544 0.5020462062 0.004449110677 5.988028598e-41
2.734190305 -0.8402942916 -0.4173343413 -0.01664648334 0.01155290984 0.9997946914 5.988028598e-41
15.778409 -17.38895988 2.563239336 -0.6751629243 0.7352717625 -0.05941768209 5.988028598e-41
5.519934416 -4.644924164 0.3944976926 -0.1906422859 -0.1880542044 0.9634786635 5.988028598e-41
66.35675049 -37.52755356 4.809558868 0.7109080569 -0.5510665517 -0.4369615432 5.988028598e-41
14.44534969 -4.131278992 1.532755613 0.8648293544 0.5020462062 0.004449110677 5.988028598e-41
14.47709894 2.059107661 1.932917118 0.2411782093 0.9654729882 -0.09846309179 5.988028598e-41
17.22555351 -13.07964516 3.623268843 0.9736027369 -0.009205655274 -0.2280635145 5.988028598e-41
15.41661501 -6.04329443 2.699710131 0.9112839108 0.3876776911 0.1388079312 5.988028598e-41
34.15599442 25.73838425 5.615318775 0.6419462112 0.676352698 -0.3611815192 5.988028598e-41
16.80569077 -0.4811674059 1.969090283 0.9867529821 -0.1622292625 -0.0004677676319 5.988028598e-41
5.345120589 -4.607270241 0.3743836482 0.2380450685 0.1100426692 -0.965000081 5.988028598e-41
12.64257526 4.564073801 2.184219122 0.1420764285 -0.04575212724 0.9887977707 5.988028598e-41
14.62132025 -4.442287922 1.577804327 0.8590416832 0.5099466425 -0.04474157165 5.988028598e-41
14.72654009 -4.530475378 1.594950676 0.8597150426 0.5093187371 -0.0385288139 5.988028598e-41
6.785485029 -3.915227771 0.2331921682 -0.1420964701 -0.3287317655 0.9336723299 5.988028598e-41
18.93958664 11.67222404 2.855879426 -0.07416501477 -0.1843141925 -0.9800652167 5.988028598e-41
14.04990005 3.959834337 -0.2828303277 0.06216898144 -0.1442883681 -0.9875808243 5.988028598e-41
3.62534824 -1.234077662 -0.4009053819 -0.01794818929 0.008192029062 0.9998053576 5.988028598e-41
19.09916401 11.66962385 2.867201924 -0.06056581901 -0.2345258022 -0.9702213303 5.988028598e-41
13.33420277 1.604171276 1.758601546 0.2568864076 -0.05167925451 -0.9650588729 5.988028598e-41
32.69804382 -59.79850006 1.868011951 0.1691707908 -0.6215910521 0.7648567235 5.988028598e-41
22.30441475 -10.59091473 2.525455475 0.8220035562 0.2516038593 0.5108871222 5.988028598e-41
14.76367903 -4.723049641 1.618254662 0.8923653471 0.4510704998 0.01481524384 5.988028598e-41
10.07558346 4.036066055 -0.3638539612 -0.01990372733 0.01845348174 0.9996315875 5.988028598e-41
13.03170808 1.438720306 1.720638593 0.1870892973 0.05202514007 -0.9809643111 5.988028598e-41
46.19348907 -45.79212189 1.430628657 0.5309908818 -0.8466181612 -0.03586603636 5.988028598e-41
12.83770847 -17.11066341 2.732684732 -0.193493976 0.9109301428 -0.3643711792 5.988028598e-41
31.9445858 18.5921917 4.629959583 0.6786593612 0.7113857668 0.1826246485 5.988028598e-41
18.10629463 12.84370708 2.993541717 -0.4447302617 0.1182828342 -0.8878198947 5.988028598e-41
31.92436409 18.42411232 4.597609997 0.7534700947 0.6526969729 -0.07918003483 5.988028598e-41
44.5912323 -50.18901443 5.165875435 0.5252371637 0.849935854 0.04165292125 5.988028598e-41
8.201367855 -1.144651175 1.42433393 -0.0883655813 0.9665116216 0.2409290547 5.988028598e-41
3.908223152 4.043795109 0.2648925086 -0.03574013823 -0.07278272769 0.9967072374 5.988028598e-41
4.043438011 -3.759876649 0.326323794 -5.01337799e-05 -0.8822279678 -0.4708224827 5.988028598e-41
20.30113792 1.768979728 2.671966791 0.852479011 0.5169086596 -0.07800623999 5.988028598e-41
65.57061005 -63.56453705 5.841596603 -0.4964383249 0.8680600646 -0.004551244634 5.988028598e-41
25.40498543 8.259482384 1.732192278 0.4912869614 0.04743105901 -0.8697053617 5.988028598e-41
15.24610329 -5.525055409 1.721580505 0.8969251938 0.442152226 -0.005158088921 5.988028598e-41
18.87526131 14.11022472 4.325238705 0.6896773474 0.3593990737 -0.6286314201 5.988028598e-41
26.26519394 -39.98493195 0.1001957878 -0.4674262294 0.8815395279 -0.06633838188 5.988028598e-41
20.50170072 1.463534753 2.696255763 0.8343665889 0.5438897426 -0.08953403434 5.988028598e-41
1.964655852 0.8587409497 -0.445291692 -0.002462818677 0.01351615518 -0.9999056196 5.988028598e-41
15.29564857 -17.61424828 1.112385988 0.3521388006 -0.9358548328 0.01319079594 5.988028598e-41
17.93377686 -12.61810207 3.559415102 0.4118914588 -0.6639894193 0.62407009 5.988028598e-41
16.37747955 -7.619551659 1.612097979 0.80728447 0.5859969083 0.06999577189 5.988028598e-41
19.58565521 -11.71712971 3.154772282 0.9764748267 0.2154853368 -0.007936153177 5.988028598e-41
25.33839226 10.36104774 2.457593441 0.8579089432 0.1994690309 -0.4735022186 5.988028598e-41
32.56953049 17.55155182 4.496872425 0.04742538381 0.8277146713 0.5591415348 5.988028598e-41
15.41248798 -5.845462561 1.783455312 0.8711588585 0.4909691974 -0.005611631281 5.988028598e-41
26.47467232 9.229820251 1.351639509 -0.2972240448 0.9170679431 0.2657898698 5.988028598e-41
20.59767342 1.346432447 2.68088007 0.8646122547 0.4952279176 -0.08482310199 5.988028598e-41
33.18217087 17.73251534 4.57288599 -0.395242534 -0.9130000345 0.1010657028 5.988028598e-41
19.93150902 -5.184340477 0.6508131623 0.4485681588 -0.768998837 -0.4554419783 5.988028598e-41
19.83481026 1.383506298 0.6908552647 0.373713897 -0.4012848265 -0.8362466211 5.988028598e-41
3.600479643 -3.032979131 -0.116144518 -0.1458345373 0.8910042501 0.4299345463 5.988028598e-41
15.73066235 -6.060495853 1.813476682 0.7768267408 0.6289784966 0.03043461132 5.988028598e-41
8.810727119 -0.5481488109 0.1987884045 0.1640179162 -0.3303848216 -0.9294858755 5.988028598e-41
15.79546452 -6.152043343 1.832513571 0.9057422996 0.4235997744 -0.01393261997 5.988028598e-41
16.20318476 -6.952569962 1.433071891 0.7850849417 0.4306945346 0.4451335218 5.988028598e-41
12.64871883 -17.05637741 2.923888445 0.05433323615 0.9427028619 -0.329179607 5.988028598e-41
18.09496689 13.26292324 4.515557289 -0.5926612232 0.002502041679 0.8054479588 5.988028598e-41
33.46744156 17.41462326 4.545446396 0.9338549002 0.3488234855 0.07897595391 5.988028598e-41
15.71667194 -6.219460487 1.793692201 0.9346209693 0.3548326927 0.024029233 5.988028598e-41
23.84183025 8.675359726 2.510015488 -0.4811843845 0.08515675504 -0.8724734467 5.988028598e-41
3.434459051 -1.134147604 -0.4042756326 -0.01608583323 0.008898475215 0.9998310173 5.988028598e-41
18.39876366 -12.52727222 4.403292656 0.5908345762 -0.2641054443 -0.7623403557 5.988028598e-41
5.556114197 4.189873695 0.2928784788 0.1218193243 0.0300893451 -0.992096106 5.988028598e-41
15.93894815 -6.545163155 1.900725484 0.8673144829 0.4943074999 0.05852933613 5.988028598e-41
9.737391472 7.534058571 1.146459937 0.040404312 -0.9313992186 -0.3617498959 5.988028598e-41
13.74403286 4.596021652 -0.2883844078 -0.0198315958 0.01324302391 0.9997156246 5.988028598e-41
5.116959476 -1.836796387 -0.1952398866 0.5261604401 -0.7888532746 0.3175936121 5.988028598e-41
13.27347374 -3.578972816 0.8697382212 -0.2572727232 -0.2676201483 -0.9285419765 5.988028598e-41
16.85736465 -0.4267050326 1.043187738 0.9326157108 -0.3488258845 0.09245776476 5.988028598e-41
21.05797005 0.3749210835 2.191335916 0.8681452479 0.4907680041 -0.07396346839 5.988028598e-41
36.95827866 18.23382759 4.884994984 0.6988062244 0.4688369768 -0.5402423067 5.988028598e-41
8.491654396 -15.16914749 1.729047775 0.456485458 -0.5203634134 -0.7216944954 5.988028598e-41
13.33052158 3.053096771 1.608942866 0.9349720163 -0.1379422414 -0.3268015708 5.988028598e-41
36.97780609 17.90762901 4.841010094 0.9660476385 0.2501244454 0.06472806222 5.988028598e-41
20.62959862 -11.11253834 3.841372252 -0.1658025311 0.9822466985 0.0877550224 5.988028598e-41
16.3044014 -7.420035839 1.064252853 0.9585859933 0.2484388106 0.1392517536 5.988028598e-41
16.03463491 -6.836073558 1.905962348 0.8643563147 0.4958087093 0.08403502215 5.988028598e-41
16.07588577 -6.946665764 1.942688227 0.855722076 0.5152097824 0.04794380783 5.988028598e-41
37.02945709 17.44052887 4.786570072 0.809372199 0.4199462735 -0.410562749 5.988028598e-41
44.89882278 -49.74283981 4.991415501 -0.5392885135 -0.8403085391 -0.05522190156 5.988028598e-41
13.18565607 0.1680105925 1.712659359 0.7492314262 -0.660314851 -0.05134751823 5.988028598e-41
20.58232117 1.201186657 1.54298842 0.997966291 0.06350135541 0.005555163147 5.988028598e-41
24.81251717 -17.0659256 2.518232584 -0.3964952234 0.6021851704 -0.6929390726 5.988028598e-41
18.77925491 -15.37611485 0.8221180439 0.4842808578 -0.7962877558 -0.3624884285 5.988028598e-41
56.45181274 -43.44235992 4.182077408 0.4288881989 -0.8857890481 -0.1772926256 5.988028598e-41
37.10739136 17.31134605 4.7811656 -0.6236721245 -0.593171812 0.5090975178 5.988028598e-41
44.52421188 -49.69278717 5.016826153 0.5529423353 0.8311527493 0.05865050013 5.988028598e-41
8.714683533 -0.4780724645 0.1965432242 -0.1246980646 0.1542553599 0.9801304386 5.988028598e-41
58.80506516 -42.10029221 3.360017538 -0.4878290847 0.8678672723 -0.09396372574 5.988028598e-41
14.21401024 2.508871317 1.33135438 0.7194978137 0.4539120637 -0.5256298455 5.988028598e-41
14.33103418 -3.8601017 1.315458775 0.871860618 0.489500798 0.01574901687 5.988028598e-41
18.87481689 4.253623486 1.781253338 0.7393028075 -0.3500976815 -0.5752068951 5.988028598e-41
44.42802429 -49.98774338 5.07551384 0.5252371637 0.849935854 0.04165292125 5.988028598e-41
37.15661621 19.08770943 3.742808342 0.06356100824 0.8405580317 0.5379797334 5.988028598e-41
2.316007614 0.4701187157 -0.4403153183 -0.03566267925 -0.009708152589 0.9993167291 5.988028598e-41
19.09301186 -12.35182285 2.526597023 0.9755217728 0.1587796468 0.152139063 5.988028598e-41
31.22815895 21.71222115 5.772539616 0.887728089 0.1100460335 0.447022047 5.988028598e-41
14.23070621 0.0521584973 1.845733046 0.1946656439 0.41538064 -0.8885742575 5.988028598e-41
15.32338142 -5.562115669 1.320189118 0.8715632361 0.489837531 0.02089781562 5.988028598e-41
14.10684109 0 1.82965529 0.1864771256 0.4068392941 -0.8942639825 5.988028598e-41
13.58408451 4.53726387 -0.3024998009 -0.0181846007 0.01128796028 0.9997709249 5.988028598e-41
3.431868922 1.467446696 -0.4346074164 -0.003923844406 0.006292520717 0.9999725034 5.988028598e-41
32.60367203 18.4763298 4.422192574 0.5828745501 -0.8076336293 0.08935983179 5.988028598e-41
21.15544319 23.9792614 2.685221911 0.990091923 0.125942739 -0.06210000362 5.988028598e-41
5.404522419 3.507056236 1.033105731 0.1799192634 -0.9806333495 0.0773775966 5.988028598e-41
12.8173933 -17.06496048 2.639425754 0.04101679477 -0.9523745282 0.3021595285 5.988028598e-41
20.00383759 -14.74810123 2.200562715 0.3384276653 0.2514581641 -0.906772026 5.988028598e-41
13.93533611 2.918859243 0.2534921765 -0.4489334878 0.4289583685 0.7838708068 5.988028598e-41
21.03589058 23.66832161 2.636757374 0.7960375468 0.5870540719 -0.1472811622 5.988028598e-41
13.42541051 4.249744773 1.178780198 0.6891969324 0.5223507146 -0.5021526852 5.988028598e-41
2.720551844 0.6568690189 -0.4342321075 -0.01358411069 0.003916236939 0.9999000625 5.988028598e-41
5.941196601 -2.23226889 0.1369979083 -0.04355532361 0.1992521394 0.9789798357 5.988028598e-41
15.507061 3.72577858 0.2282638103 -0.3119392788 0.6378415633 0.7041676124 5.988028598e-41
5.284076214 -1.967215776 -0.3616575996 0.1713061242 -0.3123079146 0.9344078223 5.988028598e-41
15.22343969 -17.57126522 1.821554244 0.4076364947 -0.9113714331 -0.0568735356 5.988028598e-41
2.363303184 -4.201041699 -0.3785084486 -0.01188231375 -0.01131813015 -0.9998653462 5.988028598e-41
2.197081971 2.077209902 -0.4327092737 0.107581892 -0.2722147639 0.9562035656 5.988028598e-41
3.539090514 -3.820532858 0.4862996042 0.9042707975 0.3518683052 -0.2418326294 5.988028598e-41
21.873312 -10.3581562 3.50911212 -0.1645468471 0.981671597 0.09615201934 5.988028598e-41
15.24319935 -17.57862091 1.235671639 0.3322731087 -0.9421713478 0.04367759763 5.988028598e-41
14.00133371 -0.1209360231 1.832196385 0.1715531902 0.3771625983 -0.910119705 5.988028598e-41
14.25083113 1.977466702 1.700311005 -0.3905304001 -0.6640785757 -0.6375622729 5.988028598e-41
13.95230341 -0.1972591802 1.82466799 0.1090571908 0.3042067035 -0.9463428611 5.988028598e-41
2.988835196 0.4657223274 -0.4325912396 -0.01108245384 0.00720471709 0.9999126318 5.988028598e-41
38.84496689 16.94673347 4.873632431 0.04975284793 0.9300827094 -0.3639653936 5.988028598e-41
18.30830765 -0.3259654641 2.378210545 0.6962930105 0.7170487603 -0.03189230025 5.988028598e-41
14.49052906 1.738151908 1.820406496 0.6573485511 0.3388137596 0.6731256337 5.988028598e-41
1.918022603 2.067487498 -0.100354673 0.05841020064 -0.4752498607 -0.8779099147 5.988028598e-41
24.3509903 10.10643387 2.999245644 0.670221483 -0.1898917772 0.7174568117 5.988028598e-41
32.21497345 22.99568748 4.670637131 -0.6994274364 0.2770246837 -0.6588312271 5.988028598e-41
57.50273895 21.47651672 2.658548832 0.8027793053 0.5446890238 0.2426092627 5.988028598e-41
24.2472229 -13.06124306 2.81697154 -0.3079390029 0.5030166594 -0.8075566921 5.988028598e-41
18.3860817 13.158288 4.407124042 0.06892907113 0.9057674953 -0.4181315914 5.988028598e-41
17.76326942 -21.69474602 2.320021629 0.5902865116 -0.7444515014 -0.3120156989 5.988028598e-41
13.57663345 3.410214663 1.013239622 0.8931834297 -0.4042428677 -0.1970052408 5.988028598e-41
13.70482707 -2.935530901 0.9800861329 0.9510040224 0.2658568183 -0.1578337782 5.988028598e-41
1.89849031 1.80790782 0.2100080699 -0.6050317987 0.7958216855 0.02458388456 5.988028598e-41
16.9556427 -12.16592598 4.007351875 0.7790444225 -0.2607072658 0.5701942733 5.988028598e-41
20.39437199 1.637309849 1.28006351 0.8566616594 0.5158452169 0.005874813901 5.988028598e-41
23.74136162 9.553593636 2.897683144 0.288120128 0.8104952788 -0.5099845046 5.988028598e-41
13.71735001 1.694000483 1.925275922 0.7299871751 0.3395641166 -0.5931398948 5.988028598e-41
11.49524593 11.92864895 1.274686575 0.9710529933 0.2077945406 0.1178028566 5.988028598e-41
6.431078434 -4.619480133 0.2079248041 0.06662216967 -0.1916410113 0.9792013119 5.988028598e-41
16.40715885 -7.510052681 2.001711786 0.8348009432 0.5469569106 -0.06281339968 5.988028598e-41
18.11946869 12.96269894 3.146949053 0.5546046693 -0.09028159991 0.8272018457 5.988028598e-41
65.40624237 -63.93880463 6.027105808 0.4657935187 -0.8845348711 0.02518848375 5.988028598e-41
22.37950516 -11.56081867 2.981335878 0.9221333501 0.1363532506 0.3620467865 5.988028598e-41
2.498724649 1.453492077 -0.4298517986 -0.002399784042 0.005382066059 0.9999826371 5.988028598e-41
16.072649 -6.786046982 1.603108406 0.8194961743 0.5276195485 0.2237043413 5.988028598e-41
3.991757917 -6.012735939 0.874639988 -0.3370288648 0.008862124718 -0.9414526048 5.988028598e-41
23.88116837 6.883915901 3.683349848 0.3553482826 0.6134456192 -0.7052744646 5.988028598e-41
23.47515869 9.247110367 2.839003325 0.7207081382 -0.5713087274 -0.3926654015 5.988028598e-41
15.77522469 -20.01077652 2.188985109 0.7574585158 0.3423197218 0.5559440664 5.988028598e-41
23.78855705 9.674043655 2.91229105 0.07026759986 0.6958068073 -0.7147834297 5.988028598e-41
22.17315292 -11.55737209 2.968319893 -0.1374452487 0.568413645 -0.8111810721 5.988028598e-41
19.19426918 -9.42395401 1.341554761 -0.04791481859 0.9972289145 -0.05690924548 5.988028598e-41
13.79630852 1.601167798 2.931916475 0.6089940341 0.4252909446 -0.6695176464 5.988028598e-41
19.244977 0.416564107 1.58937645 0.1166148874 0.9931003018 0.01235955389 5.988028598e-41
16.91661453 -0.7888903022 2.800534248 0.7991792759 0.595161742 -0.0842317386 5.988028598e-41
3.616174085 -3.31781997 -0.385876877 -0.07357796992 -0.021694574 -0.9970534729 5.988028598e-41
24.03269768 9.481269836 3.094398737 0.04622257741 -0.890777107 0.4520836416 5.988028598e-41
23.2740078 23.71689796 3.117667437 0.07644661589 0.9257493942 -0.3703295479 5.988028598e-41
25.05628014 9.940722466 2.533868551 0.4974679967 -0.1777719101 -0.8490716933 5.988028598e-41
21.24901009 21.57037163 2.287298203 0.9025542049 0.3787593426 -0.2047859066 5.988028598e-41
46.25422668 -45.54921341 1.915344119 -0.5334945765 0.8457667856 -0.007879162818 5.988028598e-41
21.44729614 21.45478249 2.254380226 0.9025542049 0.3787593426 -0.2047859066 5.988028598e-41
12.95698547 -3.600597143 0.8531436324 0.1808917904 -0.3774248834 -0.9082007584 5.988028598e-41
21.82022667 -11.62397957 2.961201549 -0.6396453149 0.1587778337 -0.7520927275 5.988028598e-41
8.874209404 -0.9671820402 1.064451575 -0.3517123589 0.9278911528 -0.1237595459 5.988028598e-41
12.96370888 5.088253498 -0.3111732602 -0.01839059581 0.01367140535 0.9997374049 5.988028598e-41
23.50837326 -12.72684145 1.466488004 0.6268720847 -0.7638367594 -0.1535734168 5.988028598e-41
11.68743324 6.253621101 -0.3517333269 0.1349520739 -0.03988591766 0.9900490146 5.988028598e-41
14.10916901 -3.61737591 1.002561957 0.8597686983 0.4738669198 -0.1903888858 5.988028598e-41
23.39494769 8.757870038 2.797590494 0.7626620313 0.6028988011 0.2342213943 5.988028598e-41
25.50753117 -13.36904526 2.562621355 0.07176949746 0.2071605064 -0.9756708788 5.988028598e-41
22.38383102 -11.0481987 2.901440859 0.5789365168 0.240133009 0.7792102717 5.988028598e-41
19.49157524 11.92106724 3.044522047 0.7093919665 0.4894246304 -0.5071750871 5.988028598e-41
19.42713547 12.33359146 2.434854031 -0.6068414116 0.7838702522 0.1314949763 5.988028598e-41
23.5226841 8.682641506 2.801420331 0.8405087466 0.366976567 0.3985890693 5.988028598e-41
36.39050293 19.20277214 3.730122328 0.2312891612 0.9534478221 0.1935008383 5.988028598e-41
17.4014101 -23.11762428 2.610378027 0.1723449222 0.138276681 -0.9752829268 5.988028598e-41
3.691373587 2.798859596 0.1528657228 0.1273318951 0.1348757403 -0.9826469983 5.988028598e-41
23.05711937 -41.83690262 -0.1250614226 -0.5088618605 0.8607670122 0.01182191372 5.988028598e-41
23.57100105 8.597782135 2.792138815 0.7628909341 0.2823265951 0.5816262686 5.988028598e-41
16.32686138 -7.635895252 2.79676795 0.8068053855 0.5858647021 0.0763388547 5.988028598e-41
23.54392147 8.490261078 2.785225868 0.8024612588 -0.0810907665 0.5911685172 5.988028598e-41
19.84664345 -11.47232342 2.847192287 -0.1201304597 0.9918802242 -0.04174078888 5.988028598e-41
14.8365202 -4.736395121 0.9389129579 0.7569257713 0.627229559 0.1834297063 5.988028598e-41
1.725962102 1.926841557 -0.2598298639 0.3612606303 0.1587516521 0.9188518215 5.988028598e-41
13.57541752 -24.08265305 1.816818595 -0.4954554401 0.8678190643 -0.03760290555 5.988028598e-41
23.49075222 -12.75974703 2.588174105 0.7686532837 0.5952270084 -0.234258272 5.988028598e-41
17.20746994 -23.21216774 2.639790535 0.1723449222 0.138276681 -0.9752829268 5.988028598e-41
23.41384888 8.346506119 2.761809349 0.7317671162 -0.4029523212 0.5496783737 5.988028598e-41
14.00393629 2.383680105 1.788260579 0.03363064956 -0.118824495 -0.9923455642 5.988028598e-41
3.042590708 2.258689582 -0.1152517566 -0.222881215 -0.8685202508 -0.4427149624 5.988028598e-41
21.20069408 -11.95572901 2.990664721 -0.08920383815 0.9932889286 -0.07361915196 5.988028598e-41
12.72725248 -17.12163639 2.564684033 -0.1790348791 0.7674545711 -0.6155972656 5.988028598e-41
25.98954201 8.259348869 1.949980617 0.9362195259 0.126245234 0.3279560035 5.988028598e-41
13.08409405 -3.476517916 0.854116261 0.1268235172 -0.3807280905 -0.915948643 5.988028598e-41
14.31126213 -3.909749269 0.7567367554 0.7174215521 0.6853267551 0.1250342165 5.988028598e-41
53.10009766 33.3225441 2.967342138 0.8794844585 0.2965374179 -0.3722534715 5.988028598e-41
24.42177391 -12.4542551 2.234580517 0.7744415665 -0.07579778888 -0.628088334 5.988028598e-41
13.77257442 3.329391956 1.466752768 0.4738955489 -0.1223302015 -0.8720426197 5.988028598e-41
13.93239689 -2.938556194 1.521701455 0.6700347701 -0.7297808526 -0.1359165701 5.988028598e-41
22.08501244 20.70296669 2.111476898 0.2711432458 0.2348388554 -0.9334516871 5.988028598e-41
9.197468042 -0.9164215773 1.224254042 -0.422475391 0.873700065 -0.2411695262 5.988028598e-41
23.14122391 7.783382893 2.686823487 0.7646236204 -0.02857408009 0.6438433358 5.988028598e-41
23.30729294 7.654033661 2.699679613 0.4396500498 0.2510717088 0.8623635143 5.988028598e-41
19.53510857 -11.775033 2.875442147 0.9933522773 -0.1091427654 0.0365938519 5.988028598e-41
19.04879379 -11.4547205 3.739571333 0.3706187057 -0.8563705992 -0.3595430041 5.988028598e-41
35.12321091 20.63139248 1.294366181 0.8826847673 0.4669108492 0.05349635951 5.988028598e-41
33.04647064 17.48982048 4.293032646 0.2443353703 0.9454097509 0.2156400468 5.988028598e-41
32.87846375 -53.27635193 4.410696506 0.4525637048 0.8052961448 0.3829937496 5.988028598e-41
23.77592278 7.615308285 2.734191418 0.08913386662 0.2264162541 -0.9699437271 5.988028598e-41
4.226455986 -6.222172081 0.7194637955 -0.3771064609 -0.003892185836 -0.9261617397 5.988028598e-41
23.3365469 8.739106655 3.267409682 0.9776968614 -0.1913658087 0.08653308276 5.988028598e-41
19.55341434 -11.87697792 2.892189264 0.9306688852 -0.06135400907 -0.3606814545 5.988028598e-41
23.84455109 7.545619488 2.743455648 0.4566778248 -0.1883397741 -0.8694673621 5.988028598e-41
19.79532242 11.86133766 3.78313303 -0.2239842865 -0.4196978214 -0.8795935301 5.988028598e-41
8.518640041 -1.067805231 1.172171533 -0.4350910641 0.898237673 -0.06216790802 5.988028598e-41
65.1703949 -64.04277039 5.220418453 -0.4845582595 0.8746574286 0.0133295047 5.988028598e-41
4.164935589 -6.174770832 0.7421082854 -0.3771064609 -0.003892185836 -0.9261617397 5.988028598e-41
2.945583344 2.352761269 -0.02456290835 0.9994974421 -0.01288563442 -0.02896245225 5.988028598e-41
3.035221645 -4.317507948 0.005252898014 0.6282016535 -0.3554050835 -0.6921343144 5.988028598e-41
20.30504417 -12.54064941 3.053009033 -0.1358765128 -0.5057702383 0.851900252 5.988028598e-41
4.120711872 -2.537042379 -0.2212976835 0.9362082606 0.1020281191 0.3363099101 5.988028598e-41
7.065973282 3.750719309 -0.4052494764 -0.01924386613 -0.0005764462064 0.9998146535 5.988028598e-41
8.518676622 -1.070520588 1.109615632 -0.4530819484 0.8913861657 -0.01214296742 5.988028598e-41
14.59783268 2.779404879 2.414792061 0.84554215 -0.4643740248 -0.2634677165 5.988028598e-41
23.35639572 7.109576225 2.669509172 0.8468727338 -0.1130071614 0.5196498381 5.988028598e-41
32.75572205 19.07959366 0.7609516978 0.9866439311 -0.09489865513 0.1323933479 5.988028598e-41
5.727296352 4.989206552 0.5058704018 -0.2205979781 0.1214421764 0.9677749376 5.988028598e-41
30.47052956 12.63376904 0.5239415169 0.9217130217 0.3753077095 0.09792460781 5.988028598e-41
4.205754089 -6.422624779 0.7630181789 -0.4682422012 -0.08012770087 -0.8799595403 5.988028598e-41
18.66214752 18.92455482 2.746616363 0.03100565066 -0.06867564726 -0.9971571115 5.988028598e-41
1.763822926 1.755924741 -0.2836628722 0.7643438351 -0.1898492082 0.6162270523 5.988028598e-41
20.46443939 1.567467213 1.820920706 0.8480267025 0.5290484401 -0.03095900362 5.988028598e-41
9.187404633 -2.615367174 0.4905904233 0.2961482571 -0.780771712 0.5501742847 5.988028598e-41
25.41164207 7.474233627 1.884745836 0.6153811292 -0.1463094704 -0.7745318617 5.988028598e-41
11.42176978 11.98144118 1.198189855 0.9908359122 0.08129335756 0.1078683689 5.988028598e-41
19.90785789 -12.70225239 3.079632044 -0.05966465626 0.7988879124 -0.5985133518 5.988028598e-41
2.931277084 3.94310143 -0.176243557 0.9502105251 -0.1019687089 -0.2944526116 5.988028598e-41
11.7237196 -18.12211227 2.291393757 -0.1911215979 0.9092599278 -0.3697552144 5.988028598e-41
19.40015411 -12.57936001 3.03579998 0.6936732771 0.2726815251 -0.6666799611 5.988028598e-41
14.76521397 -2.204041481 2.021107197 0.5092537443 -0.8395429269 -0.1892836437 5.988028598e-41
19.84106731 -15.1312604 2.319165349 0.8574224707 -0.2588022438 -0.4448011976 5.988028598e-41
4.504907284 -2.43256134 -0.3019814992 0.9127819518 -0.3995549351 0.08476415678 5.988028598e-41
8.126017332 -1.26665771 1.091139883 -0.08875108975 0.9363838348 -0.3395711384 5.988028598e-41
7.049936295 -1.120384455 0.150774762 0.316694645 -0.5355649279 -0.7828631488 5.988028598e-41
14.3940115 3.989107132 1.627904177 -0.349813925 -0.5905179713 -0.7272679997 5.988028598e-41
7.749032179 -13.65371354 2.002789656 -0.08005471644 -0.06085703917 -0.9949309841 5.988028598e-41
6.125545025 3.429772973 -0.4127911925 -0.03295116502 0.002324381443 0.9994542601 5.988028598e-41
35.16490555 -53.67624664 3.115953922 0.5428073424 -0.4085584222 -0.733784849 5.988028598e-41
14.37363863 2.533167124 1.59843725 0.7142931509 0.2933056474 0.6354188317 5.988028598e-41
14.28795052 3.793719768 1.605950356 -0.5473647567 -0.06131355625 0.8346451168 5.988028598e-41
95.94396973 -82.0308075 11.17700672 0.6247954368 -0.7093526745 -0.3262659121 5.988028598e-41
34.92282486 21.03355789 1.345284462 0.8108832121 0.5714184977 -0.1262906049 5.988028598e-41
20.58364105 1.4212991 2.672390222 0.8423620787 0.5279909509 -0.1079429666 5.988028598e-41
13.79308701 -24.20147896 1.269808769 -0.1984434592 0.9798153459 0.02412636291 5.988028598e-41
19.47755432 -11.73107433 2.723356485 0.8126362231 -0.3653905874 -0.4539956912 5.988028598e-41
14.80130672 -2.163233757 1.489121139 0.8218327513 0.5645030687 -0.07698840462 5.988028598e-41
49.3470993 -73.38088226 2.655440807 0.7031489748 -0.708744822 -0.05711651828 5.988028598e-41
24.85430717 10.66027403 1.779675841 0.8929334222 0.3842341704 0.2345932776 5.988028598e-41
20.14403915 -10.90547657 4.344810009 -0.5605008265 0.7803858367 0.2771944613 5.988028598e-41
16.22019577 -7.056108475 1.535101652 0.8921458792 0.2785112871 0.355678497 5.988028598e-41
18.09481239 12.72196579 3.896277428 0.275587496 -0.2349797313 0.932113758 5.988028598e-41
11.38973045 -17.95773602 1.983946264 -0.3348597606 0.9422261973 0.008873216208 5.988028598e-41
33.43239403 13.28747082 0.5274771452 -0.2355324275 0.9695639856 0.0668592057 5.988028598e-41
14.90740585 -17.66553688 1.863854885 0.05458983981 -0.9868284925 0.1522809111 5.988028598e-41
5.440724134 4.349491358 0.4071268141 0.102660923 0.0909242636 -0.9905521254 5.988028598e-41
8.795041084 5.131173134 -0.3929489255 -0.02838988762 0.06304484558 -0.9976068172 5.988028598e-41
18.79152489 -12.92714787 3.112227321 0.8867142031 -0.2864441603 0.3628879512 5.988028598e-41
7.534474373 -0.7786121368 -0.078001745 0.1842292774 -0.9681122508 0.1697593686 5.988028598e-41
10.43536186 -0.5651589831 1.205487728 -0.3901099841 0.9193209598 0.05160594069 5.988028598e-41
19.23661041 0.4197443426 1.439998269 -0.2684904018 -0.9627001084 0.03348739323 5.988028598e-41
36.32872772 17.6873188 3.591892958 0.8906735823 -0.2391377995 0.3866699919 5.988028598e-41
15.21242285 -5.496310949 1.933024704 0.8244744529 0.5654929199 0.02143907572 5.988028598e-41
1.863477397 -0.7153100133 -0.4350038469 0.02112734113 -0.0159327976 -0.9996498294 5.988028598e-41
14.18373203 3.436646938 1.585430503 -0.5338682496 0.2179566116 0.8169942518 5.988028598e-41
7.812972864 -13.7217172 2.105939547 -0.101056891 0.0425916279 -0.9939685398 5.988028598e-41
5.602209886 4.38381354 0.4013685584 -0.2929770161 -0.2077969317 0.9332657195 5.988028598e-41
19.62887319 -14.12556998 3.368601561 -0.1024445318 -0.5496704795 -0.8290762823 5.988028598e-41
15.69043763 -1.110928297 0.4668477674 0.484040839 -0.8415355718 -0.2398381695 5.988028598e-41
10.93836594 -19.31775856 2.588219166 0.9093116836 0.2615454612 -0.3236452284 5.988028598e-41
36.33230209 17.00383186 5.502124786 -0.5419547672 -0.6322209848 -0.5536981639 5.988028598e-41
42.60386276 -55.12295532 4.969420433 -0.159429729 -0.09101147043 -0.983005124 5.988028598e-41
49.3393898 -73.39707947 2.331310272 0.6895132051 -0.7232683829 0.03813641599 5.988028598e-41
19.51852608 -14.22793627 3.386001587 0.1682132545 0.5954077218 0.7856169206 5.988028598e-41
4.835063934 3.157954454 -0.0100792712 0.3991588707 -0.8098459117 0.4299090545 5.988028598e-41
4.45591116 1.828410864 -0.423079282 -0.0158562714 0.0030201849 0.9998697201 5.988028598e-41
13.41348267 2.355504513 2.001325607 0.03567452789 0.5334514637 0.8450780224 5.988028598e-41
19.13665009 3.799572706 0.4325278401 0.8471338254 0.5223937435 0.09730908783 5.988028598e-41
3.020167457 -0.1366578817 -0.4204814451 -0.01539413157 0.007815265625 0.9998509601 5.988028598e-41
20.75695229 0.6776989698 2.30014801 -0.6399587541 -0.724111934 -0.2571277895 5.988028598e-41
17.03040886 -12.89869595 3.082373857 0.7586113636 -0.4815446569 -0.4388889865 5.988028598e-41
14.84404469 -4.960986614 2.773796797 0.7825872826 0.5449263955 0.3010188842 5.988028598e-41
13.69124985 2.852770329 1.541520715 0.8736468234 -0.3594512838 0.3279268251 5.988028598e-41
12.93876266 -16.08107758 2.450219631 -0.5732966488 0.7101107258 0.4087465102 5.988028598e-41
13.74686384 -3.135828972 1.991650939 0.8229184673 0.5370816162 0.1853335742 5.988028598e-41
3.465360761 -3.698001266 0.4974749088 0.9416564896 -0.07867890572 -0.3272501877 5.988028598e-41
13.7076664 2.80630064 1.571924686 0.8207367513 -0.5638858637 -0.09178190318 5.988028598e-41
13.71954489 2.843671441 1.580268741 0.7312117031 -0.6195727583 -0.2854103053 5.988028598e-41
14.6495924 3.517055988 1.937999964 0.7551756315 -0.1370594229 -0.641033915 5.988028598e-41
12.9364109 -16.07241058 2.434637546 -0.5732966488 0.7101107258 0.4087465102 5.988028598e-41
20.32803345 1.78204751 1.853500128 0.8480652362 0.528571307 -0.0373862067 5.988028598e-41
13.49231784 2.858835379 1.590106408 -0.1779084233 0.8180433419 0.5469494343 5.988028598e-41
24.65405083 -17.48836136 2.437307835 0.6250427685 -0.4402650367 0.6445837688 5.988028598e-41
19.92943573 2.492939949 0.4592939913 0.8266902611 0.5511644638 0.1131412658 5.988028598e-41
11.14316273 -19.37072945 2.660780907 0.9338561879 0.1816522221 0.3080829281 5.988028598e-41
18.64723015 -13.39446068 3.333035708 0.9013638653 -0.1052848001 -0.420069391 5.988028598e-41
13.19939041 3.103181362 1.571258664 0.9409407066 -0.3367193743 -0.03536452614 5.988028598e-41
35.75488281 -54.76426697 4.60782814 -0.4688066808 0.7485001679 -0.4690072437 5.988028598e-41
11.42350817 -19.51768589 -0.0394705981 -0.2620953822 0.1915764471 0.9458353321 5.988028598e-41
20.66072845 1.050242543 2.389955282 0.955602064 0.2768900118 -0.1007800408 5.988028598e-41
19.61920643 -11.3134613 2.260517359 0.8281419822 -0.4807788006 0.2881537821 5.988028598e-41
21.44696808 23.78585815 2.807646751 0.8954978711 0.4183063929 -0.1519977779 5.988028598e-41
29.89055443 13.55266762 1.008460164 0.9765956084 0.2109457469 -0.04198701637 5.988028598e-41
18.79750442 -13.19640923 3.313712835 0.8703891663 -0.2931898653 -0.3955532859 5.988028598e-41
24.35041428 -17.30493736 3.435305357 0.8014650459 -0.591297268 0.08956182805 5.988028598e-41
14.07253075 -3.425309658 1.162762523 0.7933425811 0.5991322388 -0.1079264071 5.988028598e-41
8.636610031 -15.03773928 1.678952754 -0.3597174055 0.9087657431 0.2115377328 5.988028598e-41
16.57520294 -12.72779465 4.013009071 -0.5880808333 0.600072147 -0.5422862268 5.988028598e-41
4.607280323 2.068213633 -0.4220369629 -0.0130929616 0.009395521877 0.9998701408 5.988028598e-41
23.59272575 -13.13154221 2.162963271 0.9489742875 0.2697502687 0.1633480769 5.988028598e-41
2.880067031 3.798037688 -0.3583929638 0.8461920599 0.1911448985 -0.4974159482 5.988028598e-41
9.201499303 0.2816813513 -0.2115791341 -0.6914590639 0.712695377 -0.1181086899 5.988028598e-41
3.024464819 -2.534971131 -0.4003077812 -0.02379536914 0.009299696563 0.9996735948 5.988028598e-41
18.54595566 -12.52353859 3.192884207 0.9883473927 -0.1200073214 0.09363585895 5.988028598e-41
19.23732948 12.35725927 3.256108999 -0.5110600673 0.8588339595 0.03495479483 5.988028598e-41
33.7391243 17.30978775 5.484683037 0.2503718063 0.9644823414 0.08418890449 5.988028598e-41
20.54180145 5.300997734 1.223235488 -0.523757556 0.8517255163 0.01554565661 5.988028598e-41
19.49685287 -11.84029388 2.74421978 0.6577816446 -0.4357371763 -0.6143748215 5.988028598e-41
5.409519315 4.161310673 0.3198086545 0.01672300596 0.0279981542 -0.9994680807 5.988028598e-41
33.54491043 20.41166687 3.173143387 0.8543415739 0.4724882931 -0.2164608235 5.988028598e-41
14.34334278 3.813787937 1.754006028 0.2554093112 -0.292990728 -0.9213699133 5.988028598e-41
12.52791023 4.831606388 2.191589594 -0.1178969913 0.04770026519 -0.991879521 5.988028598e-41
56.64075089 -43.19557953 3.733123779 0.4253244475 -0.8858200613 -0.1855314888 5.988028598e-41
5.807618618 4.702916622 0.5042175055 0.3600026155 -0.2644037209 -0.8947003908 5.988028598e-41
75.40000153 34.02856445 6.524972916 -0.3747026764 0.6715583472 0.6392239753 5.988028598e-41
13.48087597 -24.07183456 1.397629976 -0.423342333 0.9055934344 -0.0261113147 5.988028598e-41
19.33658028 -11.44929218 3.897742152 0.4130927765 -0.8986398547 -0.1476508365 5.988028598e-41
18.39586639 -12.22681332 3.13579607 0.8019677654 -0.3700917479 0.4689134263 5.988028598e-41
23.39558029 8.487560272 3.409175157 0.9683324233 -0.2373642589 0.07739849218 5.988028598e-41
14.11574316 -3.532595158 1.365246117 0.8524148047 0.5226637756 0.01454573562 5.988028598e-41
8.490095138 -2.998164892 0.4466666579 -0.0529176339 0.07664164144 -0.9956534451 5.988028598e-41
15.01936436 -2.408401012 2.238062143 0.5584898491 -0.8201199779 -0.1244681098 5.988028598e-41
2.922391312 -3.937351057 -0.3845861682 0.4402910717 -0.07123638768 0.8950246641 5.988028598e-41
2.81991643 2.569738047 -0.4283014749 -0.2135891089 -0.1848202766 0.9592815843 5.988028598e-41
14.86719513 -2.328140497 2.211417437 0.5358380674 -0.8232492939 -0.1874517688 5.988028598e-41
14.28470898 3.966870785 1.765183568 -0.1331858252 -0.6668321972 -0.7332096268 5.988028598e-41
15.30241203 -5.451952934 1.715978265 0.8962669702 0.4435149246 -0.0001727075411 5.988028598e-41
23.39813042 6.585731029 2.902771473 0.846801453 0.1264542216 0.5166591032 5.988028598e-41
18.90359116 -12.27144527 3.175446749 0.8637243516 -0.1670236665 -0.4754822176 5.988028598e-41
36.55042648 18.83277702 4.430433273 0.8079294264 0.1928791248 0.5568192572 5.988028598e-41
16.31971741 -7.639529943 2.876554847 0.8141503012 0.5793287818 0.03921032513 5.988028598e-41
24.18949127 9.827251434 2.988651514 0.4613385739 -0.2014450471 0.8640524366 5.988028598e-41
9.787011146 5.564315796 -0.3911778927 0.3209531867 -0.4217589684 0.8480026088 5.988028598e-41
19.70894623 -12.48838425 3.266701698 -0.04380332673 0.9137233617 -0.4039689181 5.988028598e-41
12.58521461 -18.39401245 1.671884775 0.6995548437 -0.5070145973 0.5035466402 5.988028598e-41
14.63004923 3.649091601 1.899416089 0.7146387792 0.0844385809 -0.6943785288 5.988028598e-41
7.936999798 2.816876411 -0.3662414551 -0.01373986807 0.02005218359 0.9997045193 5.988028598e-41
16.32350636 -7.451092005 1.601402581 0.9361960281 0.3423759044 0.07947161125 5.988028598e-41
12.75203514 2.568945169 2.493218183 0.5475345302 0.07054362574 -0.8338042547 5.988028598e-41
4.48362422 2.166025877 -0.4246977567 -0.0165009168 0.02139060964 0.9996350142 5.988028598e-41
6.574587822 5.693078041 0.6340834498 -0.1026109125 -0.4156420455 0.9037215781 5.988028598e-41
20.25204277 -12.62541199 3.320056915 0.1400067157 -0.8621458332 0.4869319067 5.988028598e-41
18.13342571 -0.2246788815 1.733409762 0.6365649144 0.7707273372 -0.02764925872 5.988028598e-41
23.88996124 7.390609741 3.030611277 -0.242527719 0.1835331257 0.9526257908 5.988028598e-41
14.33325481 1.615331769 2.292277813 0.8047199945 -0.4942210926 0.3288939678 5.988028598e-41
19.85903931 -11.9844656 3.202071428 0.7939967537 0.2946829138 -0.5317246801 5.988028598e-41
33.69068527 18.26210594 3.750740766 0.9628008235 0.1947620605 0.1873027335 5.988028598e-41
8.902481461 -1.022767472 1.789325762 0.8799766523 -0.4475218572 0.1592648072 5.988028598e-41
4.34011569 -1.13506062 -0.3891685158 -0.01723877622 0.007351091955 0.9998243776 5.988028598e-41
23.09627342 7.598134994 2.972458839 0.6521684857 0.1663026103 0.7396078069 5.988028598e-41
20.16827393 -12.5585289 3.060420036 0.04761675063 0.6715965342 -0.7393853801 5.988028598e-41
3.141914419 -0.7287649257 -0.4133851635 -0.01263612481 0.01693956689 0.9997766648 5.988028598e-41
22.77754784 21.21811867 2.444452047 0.2490002494 0.2122439644 -0.9449610444 5.988028598e-41
10.40514088 -0.5635222197 1.290541053 -0.4048883312 0.9129910305 0.05012801072 5.988028598e-41
19.24902344 0.4200151563 1.474723697 0.2431326605 0.9679972802 0.06219143708 5.988028598e-41
22.14258194 20.77872658 2.400463581 0.225885696 0.2908804126 -0.9297119113 5.988028598e-41
10.37200069 0.9932291508 -0.1072974503 -0.5333602322 0.8286136543 0.1700772604 5.988028598e-41
20.75939751 -11.81695175 3.233905792 0.5957671284 0.6862010042 0.4173604085 5.988028598e-41
23.06164742 8.058003426 3.021133184 -0.639885261 0.2404716939 -0.7298768508 5.988028598e-41
20.43962097 5.236597061 0.5709401965 -0.5249278009 0.8507523685 0.0259077469 5.988028598e-41
20.16182137 -12.36970615 3.278047085 0.03625353305 0.2522054829 -0.9669943514 5.988028598e-41
14.14855099 -3.618255615 1.281530321 0.8483304795 0.5264418451 0.05651885852 5.988028598e-41
15.37404156 -5.616973877 0.746129334 0.8012007583 0.5653825783 0.1960099107 5.988028598e-41
6.876933575 4.148431301 -0.2439752221 -0.3761046066 0.5803167731 -0.7223418635 5.988028598e-41
4.638747056 2.373641173 -0.4274656077 -0.03929480351 0.04417190966 0.9982508506 5.988028598e-41
21.29074669 -11.91850948 3.285964489 0.2454440998 0.2184369074 -0.9444800217 5.988028598e-41
12.86678123 2.4987185 1.83509326 -0.1135138981 -0.3860786368 -0.9154550132 5.988028598e-41
17.1330452 -22.98574448 2.851394892 0.1723449222 0.138276681 -0.9752829268 5.988028598e-41
16.0374883 -7.052243551 2.972648064 0.8620148634 0.4926666473 -0.1192054945 5.988028598e-41
20.94378662 -15.73075581 3.602034569 -0.4636093263 -0.5001070271 -0.7314091564 5.988028598e-41
9.513943354 0.5725554625 -0.0891914045 0.5891099814 -0.7071735984 0.3909666628 5.988028598e-41
17.37674713 -23.13524246 2.857423305 0.1723449222 0.138276681 -0.9752829268 5.988028598e-41
19.50077248 3.046765804 3.879469156 0.8533760002 0.5205538905 -0.02780376532 5.988028598e-41
54.18281937 -44.8717308 3.440733433 -0.5518120641 0.8328836059 -0.04252463929 5.988028598e-41
13.68761826 3.152487516 1.444076419 0.4039001584 -0.06552611793 -0.9124532809 5.988028598e-41
18.75113106 -6.314096451 0.9815270901 0.4586936761 -0.6867186143 -0.563930542 5.988028598e-41
18.61223125 -0.03079360725 1.016139865 -0.3140271116 0.7362343527 0.5994547114 5.988028598e-41
5.039497444 -2.061990499 -0.1210892871 0.8983022977 -0.1626269831 -0.4081733042 5.988028598e-41
38.93362808 -50.03045082 1.88150245 -0.5136289891 0.8490462409 0.1237163786 5.988028598e-41
3.138360262 -1.441601664 -0.4061786272 -0.01777929451 0.006544315576 0.9998205182 5.988028598e-41
36.27062607 17.16053772 3.228407383 0.901309044 0.3376080072 0.2714089915 5.988028598e-41
3.697918594 -6.348570585 1.081633419 -0.2184581192 -0.1482416474 -0.9645208469 5.988028598e-41
21.67534065 21.72836685 2.587990999 0.9025542049 0.3787593426 -0.2047859066 5.988028598e-41
19.05992889 3.794713736 1.830210686 0.8548548297 0.5188175649 0.00718013984 5.988028598e-41
17.39237785 -22.29328918 2.712628603 -0.09492368885 -0.2891647293 -0.9525614167 5.988028598e-41
8.549744606 -1.065664172 0.8846837431 -0.4226322945 0.9007384883 -0.1002602578 5.988028598e-41
13.49751377 3.973871589 1.475080192 -0.1120097745 -0.5374327426 -0.8358348267 5.988028598e-41
7.896481156 -0.4587764814 -0.2051155865 0.7970907158 0.3110940961 -0.5175585514 5.988028598e-41
21.77961349 -11.27019596 3.232845306 0.8251844917 -0.564344132 0.02421270873 5.988028598e-41
14.66849232 -4.571535111 2.296219111 0.8547050723 0.498883243 -0.1435087079 5.988028598e-41
13.75471497 2.5244627 1.67992425 -0.05648867972 -0.504711508 -0.861437939 5.988028598e-41
57.41984558 -42.45743942 3.742544174 0.5746210462 -0.8132358923 -0.0919675854 5.988028598e-41
18.64394569 -13.16160488 2.899224043 0.9767034634 -0.1590331862 -0.1440791113 5.988028598e-41
15.88605976 -19.89300156 2.393020153 0.7574585158 0.3423197218 0.5559440664 5.988028598e-41
16.79068375 -22.69958878 2.818197966 -0.05964267331 -0.1330256861 -0.9893163894 5.988028598e-41
16.83770561 -0.7881556153 2.462049723 0.7242254034 0.6826841319 -0.09715935922 5.988028598e-41
3.896340092 -3.651665092 0.08590626095 -0.2914196378 0.1778411424 0.9399186788 5.988028598e-41
23.55429077 9.392443657 3.207943201 0.6513786461 -0.1634162369 0.7409460122 5.988028598e-41
23.77630806 9.582123756 3.252033472 0.2869218396 0.9563323905 0.0557155 5.988028598e-41
11.59167242 -19.30322933 1.914496183 -0.489035314 -0.816537599 -0.3067748541 5.988028598e-41
18.66267776 -15.58229542 2.003133297 -0.02802882862 0.9327251624 0.3594970879 5.988028598e-41
15.64790249 -1.193051994 1.527682662 0.9813279964 -0.1906663187 -0.02533215964 5.988028598e-41
23.43272018 9.543637276 3.214288473 0.6614794067 -0.2679789418 0.7004514838 5.988028598e-41
36.99899292 17.58424377 4.797785282 0.8861708061 0.2657779277 -0.3795568409 5.988028598e-41
16.8496666 -0.4824264944 2.459107637 0.8210479621 -0.5704244711 0.02227479973 5.988028598e-41
22.08954048 -10.72610474 3.171836376 -0.4872009889 0.02622379872 -0.872896047 5.988028598e-41
65.85701752 -63.53077316 9.278681755 -0.4485523268 0.8936332287 0.0148479861 5.988028598e-41
16.99970436 -0.4243702888 2.480761051 0.8210479621 -0.5704244711 0.02227479973 5.988028598e-41
14.33926741 7.058924039 0.7798701723 0.9002907037 0.3744514214 -0.2219522063 5.988028598e-41
18.24766541 -0.3886065483 2.66264987 -0.6278328162 -0.7770425828 0.04506417131 5.988028598e-41
21.43766403 23.61758614 2.925229788 0.8767128943 0.4764877697 -0.06583241098 5.988028598e-41
19.68334198 4.765538216 1.064907789 0.5245179548 -0.851389843 -0.004031166199 5.988028598e-41
18.22606659 -0.1908698976 2.659041166 0.6297951989 0.7767414101 -0.005548814978 5.988028598e-41
54.11953735 28.69111061 1.935699344 0.8403327136 0.3370883998 -0.4245142415 5.988028598e-41
21.37652969 23.90834808 2.986451626 0.9871046867 0.1529548626 -0.04721384854 5.988028598e-41
18.0937767 -21.39593697 0.4793225825 0.8050404199 -0.5928424649 -0.02115973035 5.988028598e-41
16.46710014 -7.556616783 2.311348677 0.8401732794 0.5384559214 0.06460713021 5.988028598e-41
21.49224663 24.21581078 3.03779912 0.9011313652 0.4277227157 -0.07082048537 5.988028598e-41
14.03148937 0.0979598686 2.044521809 0.5176108063 0.2842445919 -0.8070217253 5.988028598e-41
14.38638306 7.559427261 -0.334746182 -0.07293576029 0.81028369 0.5814814843 5.988028598e-41
16.05809212 -6.962270737 2.198659658 0.8506371252 0.5256099438 -0.0122746989 5.988028598e-41
36.56734085 17.41039848 5.331994533 0.859092513 -0.3160480183 0.4025837854 5.988028598e-41
36.0116272 -54.26347733 4.337063789 0.6266756912 -0.7792719782 -0.003572410716 5.988028598e-41
24.02394962 8.446032047 2.496902347 0.0474470772 0.866710376 0.4965499965 5.988028598e-41
24.446064 -17.67649841 2.490808964 0.01439586101 0.08955183862 -0.9958781187 5.988028598e-41
6.088925521 -2.765885671 0.2300311824 0.1488075981 -0.08315789474 -0.9853634169 5.988028598e-41
23.72348022 6.793637276 1.898795843 0.5077683531 -0.728603667 0.4596824948 5.988028598e-41
14.06842566 0.378227517 2.053105831 0.4577584328 0.2493433959 -0.8533962082 5.988028598e-41
37.60048294 18.40401268 5.555962563 0.9778162177 -0.08792389382 0.190117946 5.988028598e-41
36.65961456 17.18822479 3.499610901 0.04397016443 0.639613559 0.7674380234 5.988028598e-41
6.598049068 -1.245490837 -0.242214638 0.6285955831 -0.7241576781 0.2836604486 5.988028598e-41
15.8605299 -6.595606804 2.139541388 0.8710543867 0.4899000039 -0.03552803948 5.988028598e-41
5.836460114 -1.57204026 0.0796527751 -0.5143899317 0.6998784998 0.4955533107 5.988028598e-41
13.71222782 3.862937291 1.222118457 -0.5135612264 -0.5603101904 0.6498517963 5.988028598e-41
34.03335953 24.61794281 3.852207422 -0.4749917193 -0.5240739739 0.7069153673 5.988028598e-41
11.4026556 -17.95385551 1.916898847 -0.2175315545 0.9730870926 0.07603639296 5.988028598e-41
4.486006737 -2.588953257 -0.3304028511 0.7024991938 -0.5327863283 0.4718406627 5.988028598e-41
16.22327614 -7.059130192 1.60232836 0.8914280468 0.3635438325 0.2705400511 5.988028598e-41
21.37244797 -0.1492102593 1.62955153 0.608658041 0.7933385792 -0.01221834206 5.988028598e-41
14.20040607 0.5107784271 2.072954893 0.1232142558 0.1350123203 -0.9831530504 5.988028598e-41
102.7385406 -75.93930054 10.21180248 -0.2187636096 0.3738458691 0.9013222228 5.988028598e-41
16.25652504 -7.222576618 2.28511858 0.9914291445 0.1067532072 -0.07531270983 5.988028598e-41
15.72982693 -6.409617424 2.100617409 0.9172024903 0.3983814941 0.005637109277 5.988028598e-41
19.4534626 3.150775909 1.141477048 0.8447542182 0.5349479262 0.01486697917 5.988028598e-41
2.90648818 4.176103234 -0.1407532282 0.8521285549 0.1342970513 0.5058075009 5.988028598e-41
15.79531384 -6.368896961 2.100195646 0.9628646371 0.2234948215 0.1514653602 5.988028598e-41
33.54774857 17.0344696 5.033586025 0.8273945181 0.407764322 -0.3861949885 5.988028598e-41
15.83797836 -6.251522064 2.09066844 0.9772524507 0.004023129252 -0.2120411798 5.988028598e-41
15.95096016 -19.76118088 2.132529736 0.2063591827 0.6713924893 -0.7117921136 5.988028598e-41
21.35226059 0.2347898334 2.327280045 0.7180317375 0.6949570385 -0.03827712977 5.988028598e-41
6.821066618 -1.345980078 0.1265219469 -0.1809152479 0.1726583233 0.9682245486 5.988028598e-41
8.607427597 4.444527149 -0.389077723 -0.00646091374 0.009434160367 0.9999346245 5.988028598e-41
33.52311325 17.32480431 5.075181007 0.8406374964 0.339298488 -0.4221435012 5.988028598e-41
14.3472538 0.7770194411 2.093544245 0.1937016457 0.07289733889 0.97834843 5.988028598e-41
35.44055176 -54.74084473 4.754535198 0.2036813958 -0.6697926241 0.7140670344 5.988028598e-41
15.44845486 -5.902281284 2.015912294 0.8433966682 0.5367458889 -0.02420559373 5.988028598e-41
1.215927426 1.707645602 0.2026799338 -0.01051504331 0.9996512638 0.02422363932 5.988028598e-41
33.22242355 17.63493347 5.085444927 0.9174488364 0.3638391843 -0.1609617362 5.988028598e-41
2.9006356 -4.719487429 -0.2932232321 0.6970307409 -0.2792505585 0.6604296115 5.988028598e-41
10.94279766 1.419279337 -0.1097785234 -0.5064684263 0.8307780093 -0.2308627999 5.988028598e-41
33.15939331 19.71993065 4.218389511 0.8180090997 -0.2819893564 -0.5013413165 5.988028598e-41
3.515884161 2.370963437 -0.07989057896 0.2840889939 -0.9564620786 0.06688599019 5.988028598e-41
17.82374287 -21.56051826 2.064088106 0.8065523518 -0.5757240987 -0.1342202146 5.988028598e-41
16.30977058 -7.23768123 2.01197958 0.9782042767 0.2059632296 0.0263731133 5.988028598e-41
20.94396591 11.50928307 3.265117407 -0.5199184081 -0.7141504707 -0.468693881 5.988028598e-41
14.22390175 1.189414501 2.084829092 -0.4221445937 -0.2227860989 -0.8787265195 5.988028598e-41
21.00671768 -16.69752693 2.546056747 0.9077858056 -0.3451564398 0.2383106443 5.988028598e-41
4.567885876 2.013725519 -0.4235825241 -0.01486913862 0.007142949735 0.9998639342 5.988028598e-41
33.28511047 18.75519562 5.253875732 0.04788225964 0.7385718903 -0.6724721943 5.988028598e-41
3.013104916 2.457849622 0.1769158244 -0.6632132608 0.4917370999 -0.5642187478 5.988028598e-41
20.76418877 0.8376058936 1.69391036 -0.6303482219 -0.7545214971 0.1826429018 5.988028598e-41
21.96866417 -11.59256458 3.570602417 0.1326665448 0.2887513011 -0.9481678512 5.988028598e-41
19.90626907 -5.185194492 0.7722620964 0.4891859599 -0.7617010521 -0.4248630413 5.988028598e-41
6.494352341 5.699409008 0.5792343318 -0.1129980591 -0.4585416271 0.8814595934 5.988028598e-41
32.67820358 18.8819809 5.21687603 -0.2093122186 -0.8547936965 0.4748853879 5.988028598e-41
