# .PCD v0.7 - Point Cloud Data file format
VERSION 0.7
FIELDS x y z normal_x normal_y normal_z rgb
SIZE 4 4 4 4 4 4 4
TYPE F F F F F F F
COUNT 1 1 1 1 1 1 1
WIDTH 499
HEIGHT 1
VIEWPOINT 0 0 0 1 0 0 0
POINTS 499
DATA ascii
3.553825961 2.989405771 -0.2786521178 0.8379472695 -0.002850167042 -0.5457437586 2.348262335e-38
3.875641509 -3.004656038 -0.2220352276 -0.1868137899 0.02254486346 -0.9821366183 2.348262335e-38
10.90497231 1.176678109 -0.1727647244 -0.4580873574 0.7151535358 -0.5279312391 2.348262335e-38
2.102138693 2.280968072 -0.1093656969 -0.05223902174 0.3019653013 -0.9518865696 2.348262335e-38
11.01162795 1.223074474 -0.1701829639 -0.4788289819 0.7174232309 -0.5059908239 2.348262335e-38
6.740965543 3.781516499 -0.4587056076 -0.02880530602 0.001770254511 0.9995834735 2.348262335e-38
3.942483442 -3.015668473 -0.2424272051 0.08292415575 -0.1125704168 -0.9901775021 2.348262335e-38
32.8602929 -56.20834165 3.319260908 0.3469450481 0.003958168021 0.9378771063 2.348262335e-38
7.160440201 4.407744103 -0.008205730155 -0.4428648313 0.8862845926 0.1355373089 2.348262335e-38
10.90381389 1.251817817 -0.1699209543 -0.4706578812 0.7077810645 -0.5268084316 2.348262335e-38
3.788662161 2.718015232 0.05734221751 0.502261587 -0.2512990553 -0.8273947565 2.348262335e-38
4.541373853 -1.501805469 -0.3703013899 -0.03833351491 -0.006151858093 0.9992460639 2.348262335e-38
3.592521021 4.138055698 -0.07573829396 0.9064251913 -0.05674756007 -0.4185368407 2.348262335e-38
44.85877926 -76.05950062 2.625306515 0.3746211974 -0.9267179587 -0.02920245571 2.348262335e-38
3.822256358 2.60956773 -0.1080186148 -0.1301548411 -0.9630231628 -0.2358942669 2.348262335e-38
8.144255436 -0.2330089251 -0.3547341894 -0.2310316025 -0.05830573352 0.9711976318 2.348262335e-38
3.244148409 -0.596731386 -0.4109428337 -0.03168088591 -0.01346272828 0.9994073626 2.348262335e-38
46.17532115 -75.34229406 1.640126333 -0.6983970525 0.715602236 -0.01244977505 2.348262335e-38
5.474843581 -1.790043658 -0.1798675785 0.8977421275 -0.4212782377 -0.1287777891 2.348262335e-38
3.472148436 2.784633354 -0.2726185922 -0.6073701505 -0.2887580981 0.740081253 2.348262335e-38
5.497431649 2.396604059 -0.4366666891 -0.01138031805 0.02138072257 0.9997066335 2.348262335e-38
2.61115846 -1.692084774 -0.4084084636 -0.0169450389 -0.005803887745 0.9998395774 2.348262335e-38
7.524934786 -0.5397555217 -0.3538632036 0.131342488 -0.3445698602 -0.9295271713 2.348262335e-38
3.122487926 -4.197182655 -0.3617432065 -0.03925764715 0.4039287868 0.9139476858 2.348262335e-38
7.83384654 2.948410804 -0.4188071803 -0.007496514439 0.01560131634 0.9998501894 2.348262335e-38
2.079333774 0.2689819977 -0.4360301215 0.005423748991 -0.01560309729 -0.9998635538 2.348262335e-38
9.228949434 0.5831560344 -0.3594886897 0.1067422191 -0.1719797272 -0.9793002972 2.348262335e-38
8.981186053 3.020252282 -0.4148736209 0.006542840122 -0.02372727591 -0.9996970579 2.348262335e-38
3.431388875 1.597601206 -0.4591099152 0.01047059683 -0.0448128511 0.9989405262 2.348262335e-38
5.665920099 -2.130296993 -0.3425875566 0.4094355744 0.6154239073 -0.6735101519 2.348262335e-38
2.060123212 2.230454511 -0.1056855391 -0.08896340471 0.7026224433 -0.7059796136 2.348262335e-38
6.364844362 0.06677319158 -0.3678939891 -0.01107833374 0.02288587802 0.9996767013 2.348262335e-38
6.667886463 2.124689085 -0.4118173337 -0.009737625943 0.02240128614 0.999701636 2.348262335e-38
3.753062088 -2.897349665 -0.3665700982 -0.1566860094 0.1449687452 0.976951154 2.348262335e-38
20.58162931 11.68239559 0.02819973354 0.03157901006 0.007332276907 -0.9994743638 2.348262335e-38
3.110800208 -4.104240756 -0.3648371457 -0.2192266054 -0.06105947863 0.973761488 2.348262335e-38
3.114132071 -2.392011874 -0.3950849379 -0.03715251008 0.0237040935 0.9990284315 2.348262335e-38
6.989070207 2.648109724 -0.4225484532 -0.01100883982 0.02376892916 0.9996568629 2.348262335e-38
3.75452703 2.734042281 -0.3828858809 -0.3288609867 -0.7841557243 0.5262606307 2.348262335e-38
3.863635207 -3.788861984 -0.421391259 -0.1897269386 -0.1794738256 -0.96529417 2.348262335e-38
3.532849283 2.214047841 -0.4833848075 -0.01767895146 0.1104011222 0.9937298662 2.348262335e-38
9.432279164 0.2619906635 -0.2974442985 0.2210792285 -0.4002760653 -0.8893272998 2.348262335e-38
4.25107323 2.508554534 -0.4912316737 -0.01568004534 0.03489118175 0.999268103 2.348262335e-38
2.843098727 1.310120471 -0.4370994279 0.002711740527 0.01438033343 0.9998929205 2.348262335e-38
7.364885116 -0.8039577869 -0.2220588547 -0.1488721061 0.9459828828 -0.2880164603 2.348262335e-38
3.013768071 0.3078379482 -0.4430283549 -0.003590161832 0.03154935303 0.9994957474 2.348262335e-38
5.498053248 -1.709528572 -0.1035071371 0.9050705933 -0.3103545353 0.2907357625 2.348262335e-38
10.01732712 0.6764648818 -0.3212475422 -0.5306902059 0.5510022209 -0.6440220943 2.348262335e-38
3.125764791 0.4944222484 -0.447353236 -0.01404811673 0.01846981015 0.999730722 2.348262335e-38
2.819926901 -0.488410815 -0.4074534505 -0.01656096691 -0.01627978576 0.9997303151 2.348262335e-38
2.071165193 2.245245156 -0.03302419757 -0.12503446 0.3104423391 -0.9423332414 2.348262335e-38
4.614542535 -0.5641274525 -0.3705249188 -0.01099318907 0.07376235016 0.9972152553 2.348262335e-38
6.532611966 2.309830398 -0.4176196692 -0.009443514259 0.02500619974 0.9996426912 2.348262335e-38
7.37444217 2.950916679 -0.422479937 -0.01396961216 0.02156816542 0.9996697776 2.348262335e-38
7.242188404 2.524685149 -0.4183576796 -0.01702546514 0.03002867146 0.9994040286 2.348262335e-38
3.211486497 -1.085224594 -0.4222582906 -0.03726850765 -0.001530284743 0.9993041162 2.348262335e-38
2.882154327 1.020404271 -0.4540127755 0.00243417693 -0.006726902953 0.9999744115 2.348262335e-38
3.471761811 3.327189412 -0.2390104165 0.8608582853 0.2963518239 -0.4136406764 2.348262335e-38
3.569021924 -3.159393989 -0.231869111 -0.2621655594 0.2352285489 -0.9359149263 2.348262335e-38
4.65924741 -2.511445359 0.02700421774 0.1554456237 -0.2596320723 -0.9531148121 2.348262335e-38
4.862663775 -0.09297377905 -0.3968191061 -0.0212933764 0.02844694182 0.9993684824 2.348262335e-38
4.361443664 2.810460631 -0.4631523173 -0.2023717345 0.5821697793 -0.7874795421 2.348262335e-38
5.15199261 3.254020576 0.04537907745 0.409866238 -0.899482389 0.1514631931 2.348262335e-38
11.141586 1.350747267 -0.3577014862 -0.5140661195 0.6821924139 -0.5199514739 2.348262335e-38
11.82617984 4.857278788 -0.4100621539 0.01285090958 -0.02191527805 -0.9996772353 2.348262335e-38
2.912909914 -1.294528312 -0.4215144909 0.01871906254 0.0474161342 0.9986998082 2.348262335e-38
3.964081456 -2.200764981 -0.362216536 -0.02787135178 0.1211081244 0.9922479579 2.348262335e-38
3.511802896 4.303192625 -0.1458238247 0.9134658093 0.06241722039 -0.4020998705 2.348262335e-38
1.969779582 2.145661515 -0.05096794644 -0.1502208551 0.9847929291 -0.08727302869 2.348262335e-38
4.44346733 -1.816110507 -0.3717097498 -0.03337690435 0.005818658522 0.9994258979 2.348262335e-38
3.230574181 -3.641060656 -0.2023734408 0.9902152865 -0.0854757502 -0.1103067656 2.348262335e-38
3.582524356 -1.111566233 -0.3943294309 -0.05005045849 -0.01701028442 0.9986018235 2.348262335e-38
5.632149284 0.888472694 -0.4012828898 -0.0186636019 0.02985442192 0.9993799995 2.348262335e-38
3.622678774 -2.08689126 -0.3833835202 0.01796760135 0.05184960747 0.9984932566 2.348262335e-38
6.510293343 2.116681993 -0.4245754962 -0.01094937902 0.02504995258 0.9996262356 2.348262335e-38
5.091662258 -2.007169591 -0.3511347628 0.2861593024 -0.3092745464 -0.9068969669 2.348262335e-38
11.46053431 1.612277939 -0.1708465688 -0.5714082033 0.7160080871 -0.4010300293 2.348262335e-38
2.409737601 0.5155173395 -0.4540711329 0.001018936373 0.02979670568 0.9995554602 2.348262335e-38
15.07920122 3.607416709 -0.1926176599 0.1183905342 -0.2770815638 -0.9535247707 2.348262335e-38
2.602650189 1.207141793 -0.4484165189 -0.005790963057 0.01414213045 0.9998832256 2.348262335e-38
3.951099073 -3.055813545 -0.2444991545 -0.1250743358 0.0959360532 -0.9874981945 2.348262335e-38
6.173698067 -0.9794434161 -0.3095975016 0.01401634202 -0.05383375276 -0.9984515357 2.348262335e-38
4.507399225 -2.491272176 -0.2180154183 -0.03920661447 -0.9961914631 0.07788074345 2.348262335e-38
7.803207722 4.68430529 -0.3454694314 -0.03791453912 0.1537643783 -0.987379868 2.348262335e-38
4.069848035 -1.514071925 -0.3794628971 -0.03477063584 -0.000648881353 0.999395108 2.348262335e-38
3.654980876 -1.113639444 -0.3936561455 -0.05324518329 -0.01963723381 0.9983883661 2.348262335e-38
9.518814785 3.326415698 -0.4164431929 0.005045757317 -0.01965762106 -0.9997940379 2.348262335e-38
6.843812912 2.547968283 -0.4194432746 -0.01144123309 0.02363910766 0.9996550859 2.348262335e-38
7.240841479 3.124776009 -0.4349703175 -0.007811429552 0.01613903534 0.9998392436 2.348262335e-38
46.91316583 -74.79543721 1.609241104 -0.4760698456 0.6279433877 -0.6156659841 2.348262335e-38
3.426995134 3.935398238 -0.1533812376 0.9787615935 -0.08590446027 -0.186134808 2.348262335e-38
3.961692322 -2.779740407 -0.2578788116 0.02685663313 0.1734020997 0.9844848567 2.348262335e-38
7.13072667 -0.1338042079 -0.3599550265 0.007588935523 -0.0191010314 -0.999788757 2.348262335e-38
3.113045643 -3.880203405 -0.02707807157 0.5875897547 0.103171408 -0.8025546341 2.348262335e-38
4.668808026 -2.303152841 0.004073678958 -0.4381561777 0.4825774811 0.7583786249 2.348262335e-38
4.339292268 -2.427102406 0.009503558968 0.01776707207 -0.9867670379 -0.1611680616 2.348262335e-38
4.660456108 2.326296793 -0.4508854399 -0.008432380923 0.02305911486 0.9996985406 2.348262335e-38
25.5597437 -40.29391732 0.4590364745 -0.5373021872 0.8301768853 0.1487033919 2.348262335e-38
3.942021413 -0.794379953 -0.3944964323 -0.03907505036 0.01068325567 0.9991791674 2.348262335e-38
2.296516724 1.618810532 -0.4535617043 0.01204105463 0.02157316449 0.9996947592 2.348262335e-38
2.439246397 3.623764669 -0.4522012834 -0.0162794194 -0.02165039776 0.9996330531 2.348262335e-38
2.511156697 -2.7009508 -0.3993031132 -0.02053848226 0.01772524973 0.9996319254 2.348262335e-38
14.55476939 7.421085337 -0.389837473 -0.01876948971 0.06158904417 -0.9979250953 2.348262335e-38
5.962059733 -1.587614222 -0.1638558295 0.002785790064 -0.1175224539 -0.9930663181 2.348262335e-38
3.831760207 -3.205702051 -0.3631167038 -0.07403827016 0.1528127596 -0.9854778511 2.348262335e-38
2.700283569 -1.294549009 -0.4185198969 0.001176654661 0.0532800202 0.9985789177 2.348262335e-38
3.639894784 2.109306005 -0.4634186534 -0.04741317676 0.1046665812 0.9933765134 2.348262335e-38
2.399090885 3.101266298 -0.4651352747 -0.01295800459 0.01226851696 0.9998407741 2.348262335e-38
1.683228513 2.093701377 -0.003095360751 -0.06591919516 0.9368735757 0.3433985482 2.348262335e-38
48.85640643 -73.73927775 2.347700631 -0.6394691323 0.7577820157 -0.1297907758 2.348262335e-38
7.83033214 -0.571056941 -0.1396840186 -0.4005280886 0.9025672334 -0.1579545485 2.348262335e-38
9.852517653 0.662970939 -0.1585313938 -0.6161274963 0.6325935858 -0.469267795 2.348262335e-38
3.624242937 -2.504776567 -0.3664296192 -0.02703040207 0.01720576259 0.9994865277 2.348262335e-38
6.391590248 0.1858365952 -0.3722327319 -0.01204476315 0.0222654916 0.9996795344 2.348262335e-38
4.023452052 -2.915195952 -0.3385365905 -0.1559173709 0.002535369551 -0.9877668477 2.348262335e-38
10.1137366 4.13849575 -0.425899451 -0.005842902206 0.01958255035 0.9997911703 2.348262335e-38
4.289542883 -1.584418151 -0.3798327434 -0.02966622708 0.003621059957 0.9995533017 2.348262335e-38
7.318582581 3.497487382 -0.445434853 -0.006118227834 0.01365333817 0.9998880706 2.348262335e-38
6.021575376 -1.005188421 -0.3240380395 -0.04159426463 0.04774433812 0.997993184 2.348262335e-38
14.61964222 7.351753988 -0.2832230448 -0.01876948971 0.06158904417 -0.9979250953 2.348262335e-38
10.30424319 4.254533227 -0.4351777953 -0.01317662245 0.02167257651 0.9996782863 2.348262335e-38
8.20591935 -0.5429385363 -0.3354912504 0.2602962973 -0.2772678004 -0.9248612893 2.348262335e-38
5.994323984 1.594293464 -0.4107802692 -0.02120838747 0.02871389356 0.9993626552 2.348262335e-38
5.215427691 -1.673140488 -0.3461021846 -0.03303475733 0.1272013308 0.9913266496 2.348262335e-38
1.859410601 2.12770629 -0.003306966441 -0.2451032153 0.9572765138 0.1534473521 2.348262335e-38
2.251650496 2.189208016 -0.2190575938 0.05899235413 0.9966633923 -0.05640908326 2.348262335e-38
6.525206296 -0.2213330275 -0.3655412652 0.0162401559 -0.02150872717 -0.99963675 2.348262335e-38
4.067057618 2.794498462 0.07260339346 0.232735017 -0.3343445783 0.9132623472 2.348262335e-38
3.732093988 -2.093696745 -0.3851500095 0.006297934441 0.06882090809 0.9976091512 2.348262335e-38
4.272282414 2.40729691 -0.4562746003 -0.06551790267 0.102503327 0.9925726535 2.348262335e-38
2.841279742 0.6077718572 -0.4341405577 -0.009884849474 0.03162233378 0.9994510082 2.348262335e-38
3.44567039 -2.200419349 -0.3805990539 -0.02498924397 0.03761400678 0.9989798417 2.348262335e-38
3.368791339 4.504484509 -0.4079375351 0.9863678855 0.164539645 0.002258241841 2.348262335e-38
7.316703138 0.9086162563 -0.3752222566 -0.009033524943 0.02305933621 0.9996932842 2.348262335e-38
3.328925564 -0.2924782333 -0.4090787157 -0.01898385951 0.04192254197 0.9989404955 2.348262335e-38
3.508678845 4.527055403 -0.07517313733 0.6037213022 0.1706775295 -0.778710325 2.348262335e-38
6.670771525 -0.9790307247 -0.1495367294 0.4172308281 0.0581045826 -0.9069411742 2.348262335e-38
44.65735683 -75.96827739 0.8695576685 0.4029484247 -0.9130530738 -0.06298135815 2.348262335e-38
45.38891777 -75.82075866 1.98714039 -0.4787687004 0.8779402536 -0.001201126061 2.348262335e-38
4.376936137 0.8952877354 -0.4317013213 -0.03241738737 0.02754163962 0.9990948759 2.348262335e-38
8.622797486 4.855014291 -0.447393804 -0.0004430045014 -0.004777596453 -0.9999884891 2.348262335e-38
31.62187982 -53.76899725 1.456198404 0.4225269255 0.9019578806 -0.08912339157 2.348262335e-38
11.87560914 2.614206605 -0.3826917137 0.00911463359 -0.09693130929 -0.995249338 2.348262335e-38
9.814533116 0.5946929706 -0.1580662898 -0.6023896516 0.6431881949 -0.4726898069 2.348262335e-38
3.217080679 -3.588519478 -0.1376661977 0.9813048141 0.1282066138 -0.1435406773 2.348262335e-38
23.84190547 -41.35502782 0.6283560796 0.4871845441 -0.8724711211 -0.0380179273 2.348262335e-38
12.61435264 2.446943597 -0.3624272292 0.1422861276 -0.1559531955 -0.9774626636 2.348262335e-38
7.926024489 2.894813919 -0.4296202177 -0.007791005898 0.01664222082 0.9998311541 2.348262335e-38
9.735461859 3.860384522 -0.4289062917 -0.004598454639 0.01783243672 0.9998304148 2.348262335e-38
3.404892433 1.792923643 -0.4399891343 0.0336496683 -0.005632726977 0.9994178166 2.348262335e-38
2.503112384 0.004590472672 -0.442761631 -0.01762865632 0.01409985 0.9997451799 2.348262335e-38
14.63067842 7.334278371 -0.4183480318 -0.01876948971 0.06158904417 -0.9979250953 2.348262335e-38
10.85374473 1.100708074 -0.2656040209 -0.4463493651 0.7240714774 -0.5258257695 2.348262335e-38
4.683377732 1.886986058 -0.4445046278 -0.01707612804 -0.004165296535 0.9998455161 2.348262335e-38
6.433435809 1.993977517 -0.4194647573 -0.0156407728 0.02428627164 0.9995826845 2.348262335e-38
5.440857198 0.1146473433 -0.384472583 -0.02330234523 0.02372661136 0.9994468713 2.348262335e-38
6.951896312 3.471667529 -0.4414761782 -0.008542045871 0.01941675545 0.9997749862 2.348262335e-38
1.786035767 2.116739044 -0.04112708116 -0.2561114878 0.9214180043 0.2922255415 2.348262335e-38
5.861801785 -0.9660455019 -0.3298163583 -0.02658817304 0.05261258312 0.9982609805 2.348262335e-38
3.345341328 5.304139202 -0.05562456715 0.9807530147 -0.1380580739 -0.1380706065 2.348262335e-38
11.13999492 1.461395507 -0.1722558891 -0.5117509055 0.675636075 -0.5306853163 2.348262335e-38
3.54299243 -2.400382425 -0.3673555744 -0.02686385975 0.02487330839 0.9993296011 2.348262335e-38
3.437814446 4.099279843 -0.3334357018 0.9847132208 -0.02826126875 -0.1718754591 2.348262335e-38
5.43112316 -1.887839045 -0.3425919098 0.1419664068 0.04505622445 -0.9888455269 2.348262335e-38
4.362966482 -2.501086197 -0.3772000188 0.2639336354 0.950568235 0.1635819879 2.348262335e-38
6.218525387 1.810440714 -0.4073902743 -0.02043646493 0.02355474018 0.9995136443 2.348262335e-38
5.529989612 -1.995074129 -0.1956176839 0.8863792134 0.2139735919 -0.4105449938 2.348262335e-38
3.426618695 -1.20089112 -0.410421817 -0.03281389348 -0.0118566731 0.9993911485 2.348262335e-38
3.348187722 5.108997063 -0.4085328991 0.7707848565 0.1225942552 -0.6251890543 2.348262335e-38
4.223525245 -2.809374369 -0.3694566834 -0.04199295339 -0.03312658829 -0.998568586 2.348262335e-38
2.009616489 2.259770528 -0.2162141911 0.07957053521 -0.9968071852 0.006630639159 2.348262335e-38
9.966550568 0.5565749804 -0.3230488138 -0.5907689045 0.6374470227 -0.4946244987 2.348262335e-38
4.584937477 2.518075275 -0.4572238637 -0.05636322253 0.08330904686 0.9949285351 2.348262335e-38
4.950590091 1.406898831 -0.4286772807 -0.02052131818 0.0194875833 0.9995994746 2.348262335e-38
2.924514903 -0.9991026205 -0.4244527361 -0.01248690642 0.007212252151 0.9998960249 2.348262335e-38
9.487606355 0.3030083903 -0.1555209117 0.2593427565 -0.6716868495 -0.6939582919 2.348262335e-38
3.722597322 1.392914812 -0.4529575984 -0.01382005792 0.005327598902 0.9998903053 2.348262335e-38
6.121347366 2.195185608 -0.4259914985 -0.01868799236 0.01470588869 0.9997172079 2.348262335e-38
2.365692393 2.201498305 -0.3371644365 0.9294315954 -0.08258226261 0.3596346471 2.348262335e-38
7.513597225 -0.8025595166 -0.1659907497 -0.2412943497 0.9204395276 -0.3075192886 2.348262335e-38
3.127999186 -3.370387601 -0.01964298164 0.369601703 0.1694733862 -0.9136045931 2.348262335e-38
4.685908202 -2.239490004 -0.1559912725 0.01747973777 0.9441736034 -0.3289842937 2.348262335e-38
14.58180328 3.247111963 -0.302582731 0.1040656606 -0.228774978 -0.967901001 2.348262335e-38
4.258927286 3.060332869 0.1035034372 -0.2584325232 0.3954313143 -0.8813890779 2.348262335e-38
3.433570744 1.00532519 -0.4486367271 -0.008765583299 -0.01421130839 0.9998605919 2.348262335e-38
2.364480919 2.321853709 -0.3556388102 0.02537825227 -0.5167886853 -0.855736758 2.348262335e-38
47.9776742 -74.12081353 1.983015425 0.3007450726 -0.9380703518 0.1719779533 2.348262335e-38
7.235888375 1.589823884 -0.3941807011 -0.01083893967 0.03867250249 0.999193152 2.348262335e-38
1.471256205 -1.186887459 -0.4477127065 0.006364297798 -0.005623936996 -0.9999639329 2.348262335e-38
4.229008504 -1.701817954 -0.3808343983 -0.0299519477 -0.003658584705 0.9995446441 2.348262335e-38
8.188715674 3.166439721 -0.4253640242 -0.007211410989 0.01424970004 0.9998724627 2.348262335e-38
6.417777761 -0.6407201194 -0.3482918084 0.004695951763 0.0639531279 0.9979418548 2.348262335e-38
11.26654785 1.45958979 -0.3593001223 -0.5116538632 0.6947643237 -0.5054827977 2.348262335e-38
17.53649167 8.354082074 -0.4149098572 0.0392609043 -0.005349245321 -0.9992146751 2.348262335e-38
2.73836292 -2.096126852 -0.3939087143 -0.02035718021 0.02459154113 0.9994902908 2.348262335e-38
4.024132965 -0.1027420039 -0.4206230443 -0.02573336824 0.03636032042 0.9990073678 2.348262335e-38
3.07993264 -3.399831817 -0.2789598726 -0.6009284417 -0.3056741131 0.7385447479 2.348262335e-38
1.701989713 2.04472208 0.01083211275 -0.07558398114 0.9394852578 0.3341474407 2.348262335e-38
2.202734386 2.606924304 -0.459869515 -0.02689488526 0.01763433162 0.999482714 2.348262335e-38
13.19662464 2.679013452 -0.1736867803 0.3722475334 -0.5198714148 -0.7688728672 2.348262335e-38
14.62345181 3.31114195 -0.3594741088 0.1183905342 -0.2770815638 -0.9535247707 2.348262335e-38
2.403265719 2.02035388 -0.4156862913 -0.1314003652 0.2465343107 -0.9601847623 2.348262335e-38
3.417745389 2.305257602 -0.4977839598 0.0819056562 0.016143406 0.9965093346 2.348262335e-38
25.59004963 -40.31963005 0.6442624446 -0.5373021872 0.8301768853 0.1487033919 2.348262335e-38
31.50171428 -53.86592767 2.793031828 0.3477959345 0.9287198957 0.128519817 2.348262335e-38
3.533810027 2.67921767 -0.4182433088 -0.3061479056 -0.4953352906 0.8129676561 2.348262335e-38
8.336443668 1.831785489 -0.3991358882 0.001931059983 -0.0268907274 -0.9996365138 2.348262335e-38
9.534124381 0.9965606322 -0.3642648855 -0.1795854042 0.1655925728 0.9697052039 2.348262335e-38
7.594158838 -0.6808627228 -0.09947237653 -0.4640845539 0.8129280695 -0.3518145543 2.348262335e-38
6.440587654 -0.7001544873 -0.3481810212 0.05327613238 -0.1400565845 -0.9887091619 2.348262335e-38
3.365103661 3.724082564 -0.05656002383 0.990321522 -0.01060160219 -0.1383867375 2.348262335e-38
3.586325541 4.16778191 -0.08748528418 0.9205139557 -0.04835652731 -0.387705692 2.348262335e-38
4.486079409 1.588762501 -0.4459947367 -0.01970153302 0.02007684274 0.9996043067 2.348262335e-38
7.179506253 -0.7767729845 -0.09033684839 -0.3501662358 0.9161384647 0.1951253975 2.348262335e-38
9.885886418 3.522049338 -0.4235113959 0.006593454807 -0.02043809605 -0.9997693787 2.348262335e-38
6.471566039 -0.520499174 -0.3553859548 -0.01054912622 0.0410641852 0.9991008201 2.348262335e-38
1.604042072 2.097050672 0.05851884432 0.08693215503 -0.9277670341 -0.3628927264 2.348262335e-38
2.397865152 1.502435605 -0.4529712605 0.01760417263 0.02104618546 0.9996235047 2.348262335e-38
4.143151006 3.000360859 0.05554356788 0.2279076963 -0.3718370819 0.899886252 2.348262335e-38
9.629447077 1.168833702 -0.3641183322 -0.1836296544 0.184627756 0.9655012904 2.348262335e-38
3.761966982 -0.9001235404 -0.3900266064 -0.04373755914 -0.001413356062 0.9990420553 2.348262335e-38
7.409023074 2.023879713 -0.4118055707 -0.01319337425 0.02314386649 0.9996450852 2.348262335e-38
24.7278538 -40.84459978 0.7062445423 -0.5385408183 0.8300119303 0.1450999052 2.348262335e-38
3.997778038 2.969670532 0.08015997704 -0.06828508232 0.2271753823 -0.9714568921 2.348262335e-38
33.96486252 -59.19216105 2.466713222 -0.4338945882 0.08776125159 -0.8966791227 2.348262335e-38
10.1299766 4.109371711 -0.4378396482 -0.007389226921 0.01699699258 0.999828236 2.348262335e-38
9.696273926 0.382370694 -0.3187771412 0.2765533201 -0.4521199303 -0.8480010789 2.348262335e-38
2.81989737 -0.4974342652 -0.4377759783 -0.01656096691 -0.01627978576 0.9997303151 2.348262335e-38
7.890979981 1.531408954 -0.3937060739 -0.002770918055 -0.01734815951 -0.9998456698 2.348262335e-38
7.685706398 2.697489833 -0.4286076103 -0.0005843570028 0.02806521101 0.9996059236 2.348262335e-38
3.161923228 -3.899175163 -0.1326242782 0.9473899011 0.2422568467 0.2091984599 2.348262335e-38
10.02953355 0.7018509049 -0.2480354573 -0.5300602367 0.4995572081 -0.6851851876 2.348262335e-38
3.211094818 -4.087298282 -0.3715568209 0.2894028783 0.1479518788 -0.9457040846 2.348262335e-38
9.020798204 3.38220596 -0.424761645 -0.007310914345 0.02022267127 0.9997687703 2.348262335e-38
7.243208437 2.368672723 -0.4191854248 -0.01426893715 0.01882837488 0.9997209059 2.348262335e-38
6.85578323 3.388511138 -0.4390911437 -0.006980644302 0.01824593115 0.9998091601 2.348262335e-38
5.202702809 -0.6881417874 -0.3489183836 0.007113259838 -0.06822778745 -0.9976444109 2.348262335e-38
7.958488486 0.7076446181 -0.3718619189 0.004808623832 -0.02406000859 -0.9996989512 2.348262335e-38
8.281773286 -0.5724868617 -0.2252071909 0.3929886099 -0.3883507557 -0.8335128332 2.348262335e-38
3.683305484 2.629260359 -0.396284906 -0.2063018913 -0.7220272395 0.6603909411 2.348262335e-38
3.735560331 2.112119908 -0.4718582531 -0.04887115194 0.06743631653 0.9965259423 2.348262335e-38
6.622167572 -1.203933833 -0.2241422082 -0.03295838102 0.2955910436 -0.954745872 2.348262335e-38
3.195674026 -3.807191597 -0.3462415446 0.76605267 -0.100319038 -0.6349010926 2.348262335e-38
5.062514133 -1.409801572 -0.3550411885 -0.02540468258 0.008252136454 0.9996431885 2.348262335e-38
7.287349954 3.483364353 -0.4315823734 -0.006060075902 0.01424833683 0.999880123 2.348262335e-38
11.56574703 -19.5745039 -0.2413236832 -0.5056997712 0.3187562787 0.8016621334 2.348262335e-38
8.180328567 2.694382366 -0.4226710304 -0.01654448485 0.0181438655 0.9996984946 2.348262335e-38
13.50608692 2.899150077 -0.1751073104 0.1499459814 -0.3120655546 -0.9381531284 2.348262335e-38
6.359882479 0.003823756489 -0.3667084966 -0.009933184834 0.02206412189 0.9997072103 2.348262335e-38
10.24805028 1.02164071 -0.247975933 -0.08400325326 -0.1283234285 -0.9881682808 2.348262335e-38
3.180878708 -3.324056115 -0.06646488997 0.1151660486 -0.1705274698 0.9785995929 2.348262335e-38
4.388747734 -2.492206919 -0.3134349191 0.2135418035 0.9722729362 0.09531650247 2.348262335e-38
1.700133029 2.699091332 -0.4702439732 0.01614013988 -0.01188167583 -0.9997991407 2.348262335e-38
4.058001351 2.737548583 0.004168402326 0.2978782306 -0.4960332155 0.8156099612 2.348262335e-38
6.335614856 3.500855351 -0.4315752653 -0.05572468212 0.06321948879 0.9964427008 2.348262335e-38
3.781916429 2.626868382 0.06972481908 -0.04890695832 0.1126285786 -0.9924328253 2.348262335e-38
12.69538705 2.506182989 -0.3633729875 0.3823495905 -0.4249095797 -0.8205246125 2.348262335e-38
24.829643 -40.73029205 0.4286988485 0.5362172567 -0.8317188768 -0.1439262433 2.348262335e-38
12.21777879 2.209255356 -0.3580028644 0.08761641733 -0.0914600572 -0.9919467835 2.348262335e-38
7.222377663 3.42572125 -0.4391322157 -0.009564199846 0.01365257249 0.999861057 2.348262335e-38
3.295330739 -2.90726229 -0.0765456897 -0.1313941179 0.8099272331 0.5716235324 2.348262335e-38
3.2791711 4.894735431 -0.06853304811 0.9733436044 0.1218440025 0.1943097188 2.348262335e-38
31.68321914 -53.75461448 2.703792075 0.3477959345 0.9287198957 0.128519817 2.348262335e-38
3.522366873 4.117913657 -0.07392867928 0.8877015905 -0.05473121429 -0.457154657 2.348262335e-38
5.495806359 -1.918188434 -0.07914114914 0.6227332577 -0.4356115548 0.6499583549 2.348262335e-38
2.713458 0.003448531373 -0.4377710392 -0.02982979742 0.04031861095 0.9987415045 2.348262335e-38
46.84953916 -73.98244445 2.519249401 -0.1879720601 0.9805784933 -0.05596716102 2.348262335e-38
4.816803877 3.176370375 -0.006774274175 -0.37565436 0.8875866594 -0.2665965565 2.348262335e-38
2.782427097 -0.1818391763 -0.426160711 -0.03084116033 0.05092599513 0.9982261096 2.348262335e-38
3.431953771 3.608182468 -0.211409152 0.9861745818 0.03378812374 -0.1622284095 2.348262335e-38
12.6616244 2.231812653 -0.2837666998 0.2394390076 -0.2910263045 -0.9262681317 2.348262335e-38
2.859746737 1.99910877 -0.4432899872 -0.004440517886 -0.009116265493 0.9999485864 2.348262335e-38
1.469269681 -0.8847150266 -0.4376959983 0.07182619988 -0.06062599831 -0.9955729433 2.348262335e-38
10.21513975 0.8121149967 -0.2470122064 -0.4239952883 0.4483231999 -0.7869144197 2.348262335e-38
5.096143731 3.226346946 -0.4516795144 -0.2278906163 0.7008050911 -0.6759719604 2.348262335e-38
7.841279577 2.691317967 -0.4089352491 -0.00491646909 0.01820027717 0.9998222733 2.348262335e-38
1.974078741 1.899159809 -0.4550286837 0.01138548137 0.02390801352 0.9996493274 2.348262335e-38
42.09621839 -69.01951973 2.569191315 -0.1172978329 -0.1553279668 -0.9808743248 2.348262335e-38
12.10197572 2.002717748 -0.3614554843 0.06836871184 -0.1855352988 -0.9802562788 2.348262335e-38
4.370565411 -2.463016055 0.06813358128 0.03764623144 0.9144355209 0.4029769713 2.348262335e-38
5.073388137 -0.672288015 -0.3716767836 -0.02606014163 0.0608841006 0.9978045877 2.348262335e-38
7.331330176 0.9918976751 -0.3780922401 0.00770263057 -0.023962024 -0.9996831953 2.348262335e-38
20.58903469 11.5977182 0.0114309797 0.03157901006 0.007332276907 -0.9994743638 2.348262335e-38
33.97835162 -59.22813031 2.237467918 -0.3931051723 0.06274293203 -0.9173503409 2.348262335e-38
34.24125103 -59.30839138 1.556134522 -0.4571121243 0.07170350445 -0.8865140232 2.348262335e-38
3.326582363 2.42732482 -0.4622280522 0.1103660801 -0.04251971057 0.9929810686 2.348262335e-38
4.820323103 0.6554549641 -0.4106849246 -0.02214086725 0.02560107263 0.9994270194 2.348262335e-38
2.693287938 -1.70710823 -0.4118986504 -0.01940644155 -0.0008851220826 0.9998112855 2.348262335e-38
47.99731823 -74.13057274 1.808014603 0.2866471832 -0.9290096618 0.2340393997 2.348262335e-38
4.667205698 -2.392268766 0.01123400068 0.2940825073 -0.4570325063 -0.8394264513 2.348262335e-38
6.836168204 2.800905457 -0.4305433962 -0.004375352697 0.02259728085 0.9997350745 2.348262335e-38
6.23328665 -1.331659594 -0.3238076059 -0.2406257238 0.1718635991 0.9552811965 2.348262335e-38
3.066088255 -3.475556739 -0.364702696 -0.2002678225 -0.193311947 0.96048076 2.348262335e-38
9.639593366 4.597825726 -0.4353349903 -0.007619533887 0.0184435336 0.9998008696 2.348262335e-38
8.652161168 -0.03574114813 -0.1346581658 -0.5011746428 0.5851194192 -0.6375415616 2.348262335e-38
5.050710078 -1.339163454 -0.3573185298 -0.02288767004 0.005572254306 0.9997225138 2.348262335e-38
11.66033276 1.771730144 -0.1717012018 -0.5271877733 0.7189798038 -0.4529250418 2.348262335e-38
2.71676877 0.6027714736 -0.4456372648 -0.01698814617 0.03538219317 0.9992294548 2.348262335e-38
5.58192602 1.805911092 -0.4268058472 -0.01358724302 0.01375737242 0.9998130433 2.348262335e-38
3.870276404 2.855053364 0.1040328559 0.2801499745 -0.09705386275 -0.9550374545 2.348262335e-38
5.185860873 1.386397635 -0.4280855756 -0.01784475395 0.03291157336 0.9992989508 2.348262335e-38
3.457545475 -3.20654163 -0.2211726698 0.7082882411 -0.3686226995 0.6020341127 2.348262335e-38
3.499070581 3.806150957 -0.07364944731 0.9871223298 -0.02615397407 -0.1578146875 2.348262335e-38
3.236852365 2.092114603 -0.4618660301 0.0487040335 0.06128960719 0.9969310413 2.348262335e-38
2.194088529 -1.695176556 -0.4157186862 -0.02689490778 0.01013097669 0.9995869283 2.348262335e-38
6.905889433 2.022848274 -0.4125120408 -0.01279527477 0.0265184057 0.9995664336 2.348262335e-38
5.614135134 -1.54750972 -0.1303488776 0.08865189181 -0.5978669208 -0.796678095 2.348262335e-38
5.213505474 -1.897834361 -0.1245392014 0.01445594695 -0.9757660972 -0.2183381532 2.348262335e-38
7.889452306 4.382924654 -0.4261078611 0.03131479646 -0.08864445829 0.9955709636 2.348262335e-38
8.352728744 -0.5381054224 -0.1505859207 0.500159539 -0.4053192282 -0.7652168051 2.348262335e-38
4.159987269 -2.771532441 -0.3045146832 -0.07122294465 -0.04200736275 -0.9965754731 2.348262335e-38
3.517544081 3.876440113 -0.06384472342 0.9556750988 -0.109406602 -0.2733409978 2.348262335e-38
3.325598858 -0.9865522147 -0.4135608684 -0.04161403857 -0.005971468877 0.9991159159 2.348262335e-38
3.302100918 5.520525077 -0.3895256021 0.9718974738 -0.2168586249 -0.09158404423 2.348262335e-38
33.09369936 -54.44867959 2.369019872 0.04687905335 -0.1314700391 -0.9902110801 2.348262335e-38
7.791810147 1.948325257 -0.398556244 -0.01476922009 0.03482755502 0.9992841996 2.348262335e-38
3.135848917 -1.089564168 -0.4212516241 -0.03806626228 0.006700323063 0.9992527535 2.348262335e-38
6.936264967 -0.7279953455 -0.3473119284 0.1605702683 0.3599887765 0.9190349666 2.348262335e-38
3.504152121 -3.923548121 0.0212483091 0.01457332806 -0.3226741685 -0.9463979074 2.348262335e-38
13.44643137 2.841703745 -0.3304625294 0.1499459814 -0.3120655546 -0.9381531284 2.348262335e-38
3.150084091 2.215129346 -0.4583844089 0.05607316417 -0.01702993584 0.998281414 2.348262335e-38
5.488161933 -1.798334883 -0.09332994501 0.8283046829 -0.3870501138 0.4050969782 2.348262335e-38
8.622254796 3.894325533 -0.4374973019 -0.009731654371 0.01978136584 0.9997569667 2.348262335e-38
5.783840479 1.115485264 -0.4064711848 -0.01935511918 0.02706437932 0.9994462961 2.348262335e-38
5.977198818 2.305740684 -0.4359122899 -0.01607590535 0.01195021998 0.9997993586 2.348262335e-38
2.509712199 -0.9750723681 -0.4293088174 0.004333730391 0.01714028146 0.9998437026 2.348262335e-38
33.10900333 -54.44308121 2.610575351 -0.08456898174 -0.195853963 -0.9769796889 2.348262335e-38
13.13107856 2.620138379 -0.172236459 0.3604417602 -0.5174790921 -0.7760780417 2.348262335e-38
7.959405643 -0.6218597912 -0.3328828891 -0.2292118786 0.552725821 -0.8012216183 2.348262335e-38
3.20110406 -3.518095114 -0.1198218037 0.9296182876 0.3589409388 -0.08349396231 2.348262335e-38
2.727867619 -2.496662645 -0.3902629276 -0.02232620382 0.02160853145 0.9995171894 2.348262335e-38
1.519459801 2.14951891 -0.2076941224 -0.2270108005 0.9702806696 0.08379450243 2.348262335e-38
5.548057134 -1.692112812 -0.1098780222 0.9257606777 -0.362737768 -0.1067168185 2.348262335e-38
3.231954239 1.697428436 -0.4373569196 0.0295864627 -0.03881679527 0.9988082387 2.348262335e-38
3.668990046 2.622243085 0.08078091796 0.4749018828 -0.6984067844 -0.5354401603 2.348262335e-38
5.172310444 3.204677736 -0.4702573666 0.04128924731 -0.3210941207 0.9461467982 2.348262335e-38
3.084107283 -3.118683304 -0.2751523889 -0.4693856643 -0.7476946739 -0.4697124363 2.348262335e-38
30.78962171 17.03759199 -0.2855555832 0.00454039176 -0.002477851287 -0.9999866225 2.348262335e-38
9.816595245 0.4958455947 -0.1580694984 -0.5740262315 0.6748072563 -0.4638200647 2.348262335e-38
2.708467971 -1.095346082 -0.4268962252 -0.003457327369 0.03394085592 0.9994178632 2.348262335e-38
4.145417811 -2.299077878 -0.3737015957 -0.04955589329 0.2705780144 0.9614217345 2.348262335e-38
3.313987679 -3.01004166 -0.1399224432 -0.4921685103 0.8702929105 -0.01898439804 2.348262335e-38
2.203753899 2.911409639 -0.4619477072 -0.01787175798 0.01046026726 0.9997855685 2.348262335e-38
13.65072112 3.276166321 -0.3777586511 0.1492569272 -0.3464008175 -0.9261365144 2.348262335e-38
2.885665029 4.767271753 -0.4364194462 -0.2043449081 0.1718794514 0.9636911397 2.348262335e-38
2.912732936 -1.699419813 -0.4022690901 -0.02947184456 0.004168284192 0.9995569197 2.348262335e-38
3.229846834 1.299159713 -0.4539717293 -0.006344878643 0.03144316881 0.9994854024 2.348262335e-38
2.17952873 -0.9170317799 -0.4326892047 -0.02460087335 0.0299548915 0.9992484684 2.348262335e-38
5.403113289 2.111863352 -0.4249707585 -0.009416159051 0.01506129352 0.9998422342 2.348262335e-38
7.811134014 -0.6146301471 -0.2157713035 -0.4399402241 0.7499839733 -0.4939399145 2.348262335e-38
45.11072778 -75.94729397 2.064919468 0.3967962193 -0.9178659092 -0.008656386714 2.348262335e-38
46.9220128 -74.0838213 2.865398993 -0.3628019847 0.9316049478 -0.02206674108 2.348262335e-38
10.96943133 2.475358465 -0.3915304043 0.01500343434 -0.03262336471 -0.9993550986 2.348262335e-38
12.83504938 5.971321354 -0.4390409086 -0.02311058499 0.117171993 -0.992842699 2.348262335e-38
1.56136895 2.05024335 0.05959898259 0.1168352846 -0.9265617207 -0.3575372624 2.348262335e-38
6.532641688 2.502128729 -0.4318311585 -0.007397900541 0.02073543912 0.9997576269 2.348262335e-38
10.30606542 0.7837200784 -0.3244544865 -0.3802658216 0.4228366282 -0.8225612991 2.348262335e-38
2.705184627 2.412745605 -0.4464614429 0.08450168825 -0.08120121317 0.9931091721 2.348262335e-38
3.574833335 2.539050463 0.07525386421 0.5781207832 -0.7528198673 -0.3147039997 2.348262335e-38
6.03566463 -0.9048130553 -0.3271409892 -0.03334393377 0.0684175671 0.9970994026 2.348262335e-38
4.497048366 -1.900015 -0.3685791366 -0.03240792706 0.003086857316 0.9994699583 2.348262335e-38
2.825339381 0.002167942492 -0.4267011474 -0.03625092634 0.03352821204 0.9987801206 2.348262335e-38
8.57939485 -0.1188731669 -0.1350297621 -0.536919052 0.5128708868 -0.6698368347 2.348262335e-38
9.229189363 3.165308387 -0.4150838742 -0.005551818576 0.01976223842 0.9997892934 2.348262335e-38
5.885255361 -0.5131468009 -0.3642679949 -0.02159244108 0.03625204452 0.9991093813 2.348262335e-38
7.958685408 2.527017363 -0.4189029931 -0.005805781335 0.0176021142 0.9998282145 2.348262335e-38
4.261889334 2.802775597 -0.2991113917 0.3426595968 -0.9312011103 0.1242935752 2.348262335e-38
11.23930485 1.301150105 -0.3483850612 -0.5079449552 0.6840768851 -0.5234794531 2.348262335e-38
6.636725669 -1.023883286 -0.2489568283 0.3978018776 0.02569387023 -0.9171114933 2.348262335e-38
8.831246213 4.758914064 -0.4427419166 -0.005073665505 0.009503806095 0.9999419661 2.348262335e-38
5.171720239 2.300287999 -0.438504514 -0.01856859885 0.01923965804 0.9996424574 2.348262335e-38
4.875303849 -2.230890522 -0.1011087035 -0.5398644021 0.7942272348 -0.2788360213 2.348262335e-38
3.39573978 5.544511034 -0.07717909363 0.9676155803 -0.2242365291 -0.1159226799 2.348262335e-38
6.127429577 -1.206142922 -0.3233748401 -0.1080348108 0.03802398028 0.993419678 2.348262335e-38
3.927565722 0.7041131166 -0.4373175145 -0.03251764654 0.04239035183 0.9985718105 2.348262335e-38
14.49693889 3.247044442 -0.1825245 0.1183905342 -0.2770815638 -0.9535247707 2.348262335e-38
9.207546047 4.289495352 -0.450358086 -0.006868938532 0.01921106052 0.9997918548 2.348262335e-38
6.346170656 -1.412602257 -0.2829755807 0.1500672286 -0.2936767405 -0.9440517989 2.348262335e-38
3.529270626 0.3984019713 -0.4365731183 -0.02571661185 0.05470018812 0.9981716011 2.348262335e-38
7.955920082 0.7879887038 -0.3713374469 0.008331043923 -0.0253640824 -0.999643565 2.348262335e-38
8.680668395 3.543467933 -0.4242085512 -0.006121512999 0.01835369246 0.999812817 2.348262335e-38
3.835919475 0.8978625645 -0.4447703654 -0.007025758207 0.007948150554 0.9999437312 2.348262335e-38
10.53552441 0.9540528285 -0.3392571123 -0.3240794092 0.6873911329 -0.6499738203 2.348262335e-38
4.955795968 -2.127785612 -0.1419168613 0.6857535039 -0.7265374324 0.04342224394 2.348262335e-38
6.534237555 -1.219176192 -0.311790748 0.06320086225 -0.1015415064 -0.9928217229 2.348262335e-38
2.366489511 2.296749327 -0.3167377442 0.937952822 -0.1093720201 0.3290627066 2.348262335e-38
7.558973049 -0.7140245717 -0.09827112685 -0.3865672364 0.8488199087 -0.3606529279 2.348262335e-38
9.447773794 0.9373319344 -0.3676951051 -0.1859559453 0.1304617579 0.9738583655 2.348262335e-38
11.73421696 -19.05271239 -0.260764918 0.4494772093 -0.3745684762 -0.8109677521 2.348262335e-38
4.247135773 2.412085451 -0.4767304766 -0.05107107707 0.1077335458 0.9928671755 2.348262335e-38
2.836419596 1.440652473 -0.4373358052 -0.008548732943 -0.006811218051 0.9999402615 2.348262335e-38
8.986729854 3.763115697 -0.4254359641 -0.002672043722 0.01602510878 0.9998680193 2.348262335e-38
2.811926307 1.398821527 -0.4566973731 -0.00196199411 0.00542372861 0.9999833667 2.348262335e-38
11.29135258 1.364521828 -0.347297304 -0.5088425756 0.6709144759 -0.5394005925 2.348262335e-38
3.266992621 -4.609402343 -0.2596066923 0.9505873253 -0.01017595591 0.310290488 2.348262335e-38
8.381057808 2.924505745 -0.4186438069 -0.009374323193 0.02195092553 0.9997150989 2.348262335e-38
4.279025716 0.6932486514 -0.4264403303 -0.02341702177 0.05102931217 0.9984225821 2.348262335e-38
3.359045288 5.55127821 -0.1833715608 0.9685027965 -0.2338555017 -0.08552156198 2.348262335e-38
6.826217348 4.248167931 -0.242967473 0.587857467 -0.802108055 -0.1051012205 2.348262335e-38
13.35907777 2.715791863 -0.3610005857 0.3491727055 -0.4539576225 -0.8197566094 2.348262335e-38
6.938572418 3.176793563 -0.4383888891 -0.00620504317 0.01635658868 0.999846968 2.348262335e-38
5.371204264 1.310546001 -0.4287249811 -0.02456842066 0.03036506443 0.9992368866 2.348262335e-38
3.269437192 0.399176467 -0.4293892784 -0.01639559489 0.03143231059 0.9993713996 2.348262335e-38
3.337921609 2.074960688 -0.4696734424 0.03094902604 0.09017545873 0.9954448977 2.348262335e-38
4.800645432 3.164235975 0.02575284131 -0.3917507009 0.87245491 -0.292153758 2.348262335e-38
2.830652943 -0.185918253 -0.4190586623 -0.03122536012 0.05369867897 0.9980688497 2.348262335e-38
3.74014553 1.706730519 -0.4580483286 -0.007501917259 0.0110286239 0.9999110414 2.348262335e-38
2.305473177 2.90593006 -0.464888737 -0.0187740663 0.01278061944 0.9997420618 2.348262335e-38
2.362168231 -2.101582547 -0.4173909727 -0.01244441049 0.01447328213 0.9998178138 2.348262335e-38
5.468532395 -0.01470398987 -0.3830870082 -0.02171736827 0.01861152238 0.9995908999 2.348262335e-38
3.79978905 -3.081864375 -0.2051438671 -0.2431591146 0.07785110534 -0.9668572027 2.348262335e-38
3.942192271 2.706554082 0.03021535787 0.4039174951 -0.4392476141 0.8024413939 2.348262335e-38
7.46061727 1.747224265 -0.3953368609 -0.01585357639 0.03830460045 0.9991403413 2.348262335e-38
5.128186703 0.5908618304 -0.4071921713 -0.02172498057 0.01932962303 0.999577106 2.348262335e-38
9.36705285 2.118691858 -0.3925039898 0.004216154906 -0.01780644741 -0.9998325632 2.348262335e-38
3.890292924 -2.421094251 -0.3561856029 -0.05418119272 0.05724779647 0.996888704 2.348262335e-38
3.271025474 3.657912764 -0.4494680358 0.4225614614 0.09775076932 -0.9010475007 2.348262335e-38
4.598681402 -2.224820906 -0.1634882844 -0.6461995763 0.727148468 0.2316920652 2.348262335e-38
31.67671645 -53.70110034 3.120987856 0.3477959345 0.9287198957 0.128519817 2.348262335e-38
4.440670612 2.882059086 -0.2443174532 0.475951497 -0.879308807 0.0169172856 2.348262335e-38
3.513396086 2.989257738 -0.269565747 0.7368596565 -0.02862538907 -0.6754394375 2.348262335e-38
3.515845214 -3.285570353 -0.261931293 0.09736645925 -0.125662564 -0.9872834915 2.348262335e-38
7.711987742 -0.5941122024 -0.1063858226 -0.4905665875 0.7936231672 -0.3598703818 2.348262335e-38
5.930229601 -0.778815636 -0.3188740981 0.02131654236 -0.07406594031 -0.9970254969 2.348262335e-38
5.051556918 -2.106616814 -0.3498147943 0.5113775443 -0.3856596775 -0.767958085 2.348262335e-38
3.342180197 -0.4982399124 -0.4109231608 -0.02435164038 -0.002954673532 0.9996990885 2.348262335e-38
9.625745161 2.071822462 -0.395073685 0.01057449667 -0.02871822578 -0.9995316121 2.348262335e-38
6.200114396 -1.54126979 -0.3304319062 0.2665245107 -0.2761902157 -0.9234087123 2.348262335e-38
3.46556768 3.732208046 -0.08036787412 0.9879828313 0.01339847672 -0.1539818365 2.348262335e-38
12.81543171 2.573180276 -0.3675612104 -0.460731705 0.53605755 0.7073673721 2.348262335e-38
4.319828869 -2.42381588 -0.1172040328 -0.09923217272 -0.9906054522 -0.09409470694 2.348262335e-38
3.50382829 2.904145806 -0.3481538029 0.6440220906 0.04699895395 -0.7635618149 2.348262335e-38
3.878790631 2.671309126 -0.315007577 -0.1156206015 -0.943969455 0.3091173638 2.348262335e-38
2.070163924 2.805395684 -0.4766129247 -0.01411972392 0.01201669984 0.9998281014 2.348262335e-38
1.508904233 2.099968402 0.08342832552 0.1092088064 -0.9315778519 -0.3467508364 2.348262335e-38
4.808328713 -2.079839314 -0.3628683111 -0.1689252739 0.158693655 0.9727695388 2.348262335e-38
5.259053334 3.280890707 -0.0453766323 -0.4092293104 0.9000129132 -0.1500270894 2.348262335e-38
4.289218735 -2.493479681 0.07835182785 0.001695685871 -0.9826080735 -0.1856838673 2.348262335e-38
4.265768848 2.822217301 -0.03228349554 0.3609943137 -0.6088447499 0.7063930747 2.348262335e-38
9.647714053 0.3319306098 -0.1565622178 -0.3331239491 0.859426653 -0.3878327767 2.348262335e-38
31.51060373 -53.88374813 2.682537009 0.3477959345 0.9287198957 0.128519817 2.348262335e-38
5.866975474 3.584734367 -0.4640094982 0.003701674861 -0.08118636758 -0.9966920644 2.348262335e-38
7.384828606 3.558426253 -0.4356471403 -0.006520854473 0.01516196472 0.9998637874 2.348262335e-38
25.13604952 -40.53783406 0.6692679348 -0.524620135 0.8378110551 0.1511500906 2.348262335e-38
6.98645566 -0.8288825886 -0.1132403406 -0.2914716843 0.8932305821 0.3423205874 2.348262335e-38
8.385281463 1.870412453 -0.3964146202 0.002227566545 -0.02785484742 -0.9996094965 2.348262335e-38
4.300023818 2.769995999 -0.4865660987 0.1877449292 -0.4326674871 0.881788346 2.348262335e-38
6.902462207 4.215414596 0.0446015664 0.5191480616 -0.8412316932 -0.1510447898 2.348262335e-38
4.378543031 -2.19755696 -0.3808506422 -0.1367868688 0.1511624405 0.978999116 2.348262335e-38
3.384420691 -2.992510693 -0.1134432116 -0.5160336366 0.1132888262 -0.849043537 2.348262335e-38
8.614189848 3.096147676 -0.419648069 -0.008120672015 0.02266699481 0.999710089 2.348262335e-38
10.42318038 6.099824955 0.0318511496 -0.3702291561 0.3528007544 -0.8593381172 2.348262335e-38
4.8074646 3.082936719 -0.384124273 -0.3821495682 0.8826761433 -0.2735772901 2.348262335e-38
4.362942472 2.864248082 -0.4538366912 -0.3791170343 0.6918944698 -0.6144528599 2.348262335e-38
3.674384526 2.698413272 -0.2905950345 0.3686719581 0.8940158823 -0.2545910241 2.348262335e-38
1.969467348 -1.192602006 -0.4366908986 -0.03015834424 0.03193906471 0.9990347193 2.348262335e-38
11.22230677 1.45039676 -0.265397623 -0.516203287 0.6759343971 -0.525972297 2.348262335e-38
2.73556392 2.277317551 -0.446257205 0.07078700609 -0.0864261779 0.9937402656 2.348262335e-38
3.829940225 -2.112938636 -0.3851213639 0.0122863896 0.07294084955 0.9972605864 2.348262335e-38
2.40365093 1.987276492 -0.4524261162 0.05810750632 -0.2096539273 0.9760475134 2.348262335e-38
3.47632885 2.310303022 -0.4884043595 0.03766279107 0.02419722841 0.9989975017 2.348262335e-38
4.519271318 -2.232643338 -0.2219337998 0.6754368704 0.7340955095 0.06992007542 2.348262335e-38
2.722465401 3.208331577 -0.4638189318 -0.04890168967 0.008377274682 0.9987684647 2.348262335e-38
8.811266263 -0.008816290152 -0.257802304 -0.4168657505 0.7705397959 -0.482173588 2.348262335e-38
33.35312961 -54.01002088 2.738406806 0.1353713518 0.001141686836 -0.9907942741 2.348262335e-38
2.190665769 -1.897173314 -0.4124437148 -0.02888554768 0.01419496355 0.9994819299 2.348262335e-38
11.56730123 1.566078429 -0.3539532066 -0.577909461 0.71663754 -0.3904501136 2.348262335e-38
3.01211778 -3.087726935 -0.3740552601 -0.2377040229 0.2776614602 0.9308065916 2.348262335e-38
2.940598529 3.200824553 -0.4405888145 -0.0439338655 -0.001823543773 0.9990327773 2.348262335e-38
3.528654715 -1.295141128 -0.4085728554 -0.04538319443 -0.01285628238 0.9988869214 2.348262335e-38
6.511470145 0.790258606 -0.3854972627 -0.01356413123 0.02107503206 0.9996858793 2.348262335e-38
3.328512046 1.302609049 -0.4627624162 -0.006593134904 0.03760471284 0.9992709423 2.348262335e-38
6.115150104 2.49271476 -0.4291161665 -0.006484727964 0.01339228027 0.9998892914 2.348262335e-38
3.085626143 -3.11491748 -0.3749970489 -0.009080686951 -0.1934257753 -0.9810728875 2.348262335e-38
3.023447115 3.404187135 -0.4334493764 -0.03131531771 -0.02748491349 0.9991315881 2.348262335e-38
24.27959845 -41.11355724 0.5501441066 -0.5703951467 0.8182706441 0.07129186212 2.348262335e-38
3.732539586 -1.497183148 -0.400505598 -0.05032971008 -0.00359602499 0.9987261831 2.348262335e-38
2.216844569 3.587102442 -0.4696502872 0.01087771227 0.0177139193 -0.9997839229 2.348262335e-38
2.27339648 -2.901672365 -0.3946722475 0.01214170657 -0.02295936267 -0.9996626664 2.348262335e-38
6.590683078 -0.9176451008 -0.3389263902 -0.4513409032 0.01689698961 0.8921916167 2.348262335e-38
3.544857044 4.375085013 -0.08273483704 0.8898126184 0.1342118981 -0.4361429473 2.348262335e-38
3.34233256 2.607861633 -0.4564673861 -0.06104314805 -0.1864701697 0.9805623947 2.348262335e-38
3.410708376 -3.451705934 -0.3930709061 -0.1100843585 -0.04566495687 0.9928726735 2.348262335e-38
5.100724373 -1.855593967 -0.05935042409 0.5042158434 -0.7761307749 -0.3786652922 2.348262335e-38
6.744408658 -0.9789035411 -0.07961411976 -0.1114032653 0.8150551416 -0.5685722722 2.348262335e-38
5.103612314 -1.490734797 -0.3517054659 -0.0264840766 0.007062903218 0.999624284 2.348262335e-38
3.520592808 -4.182973452 -0.01828723781 0.2398906393 0.1270033692 -0.9624565577 2.348262335e-38
7.108965157 2.431783177 -0.4151869258 -0.01351014185 0.02534013305 0.9995875918 2.348262335e-38
5.178498667 3.29713727 -0.0110293683 0.3868381995 -0.911627494 0.1388939146 2.348262335e-38
3.489469072 -3.057196059 -0.1468021251 -0.4217298511 0.2291338629 -0.8772922008 2.348262335e-38
5.270857269 -2.009280714 -0.05136908937 -0.1193506374 0.8663502514 0.4849666661 2.348262335e-38
46.31266114 -74.30708958 2.397095588 0.784631254 -0.5573368265 0.2715316871 2.348262335e-38
5.753401643 1.08915197 -0.4033105643 -0.0195155649 0.02623062965 0.9994654055 2.348262335e-38
15.11032332 7.467123731 -0.1857304021 -0.032701841 0.06614210218 -0.9972741909 2.348262335e-38
3.422895843 3.41424098 -0.1443799906 0.9024697616 0.1634442576 -0.3985402164 2.348262335e-38
5.191738307 -2.011393848 -0.04551253822 -0.5896218517 0.7980667629 0.1242397438 2.348262335e-38
4.482094976 1.906145782 -0.4484604707 -0.006867363834 -0.001836276188 0.9999747334 2.348262335e-38
14.20089191 7.919091294 -0.4401896439 -0.01876948971 0.06158904417 -0.9979250953 2.348262335e-38
8.193834814 -0.3335674474 -0.3522406116 -0.1776114151 0.1729954089 0.9687759151 2.348262335e-38
